ncols         400
nrows         79
xllcorner     4502750
yllcorner     3291750
cellsize      250
NODATA_value  -9999
13	13	13	13	13	13	13	13	13	13	13	13	12	12	12	12	12	12	12	12	12	12	12	12	12	12	12	12	12	12	12	12	12	12	12	12	15	15	15	15	15	15	15	15	15	15	15	15	12	12	12	12	12	12	12	12	12	12	12	12	15	15	15	15	14	14	14	14	14	14	14	14	15	15	15	15	15	15	15	15	15	15	15	15	15	15	15	15	15	15	15	15	14	14	14	14	14	14	14	14	12	12	12	12	12	12	12	12	17	17	17	17	17	17	17	17	16	16	16	16	17	17	17	17	17	17	17	17	14	14	14	14	15	15	15	15	15	15	15	15	15	15	15	15	15	15	15	15	15	15	15	15	14	14	14	14	14	14	14	14	14	14	14	14	16	16	16	16	16	16	16	16	17	17	17	17	17	17	17	17	16	16	16	16	16	16	16	16	16	16	16	16	16	16	16	16	20	20	20	20	17	17	17	17	17	17	17	17	16	16	16	16	16	16	16	16	18	18	18	18	22	22	22	22	20	20	20	20	17	17	17	17	17	17	17	17	16	16	16	16	17	17	17	17	15	15	15	15	12	12	12	12	12	12	12	12	12	12	12	12	12	12	12	12	12	12	12	12	15	15	15	15	14	14	14	14	14	14	14	14	17	17	17	17	16	16	16	16	16	16	16	16	18	18	18	18	18	18	18	18	18	18	18	18	20	20	20	20	20	20	20	20	20	20	20	20	20	20	20	20	22	22	22	22	22	22	22	22	22	22	22	22	22	22	22	22	22	22	22	22	21	21	21	21	24	24	24	24	31	31	31	31	31	31	31	31	25	25	25	25	22	22	22	22	22	22	22	22	22	22	22	22	26	26	26	26	29	29	29	29	27	27	27	27	26	26	26	26	23	23	23	23	23	23	23	23	31	31	31	31
13	13	13	13	13	13	13	13	13	13	13	13	12	12	12	12	12	12	12	12	12	12	12	12	12	12	12	12	12	12	12	12	12	12	12	12	15	15	15	15	15	15	15	15	15	15	15	15	12	12	12	12	12	12	12	12	12	12	12	12	15	15	15	15	14	14	14	14	14	14	14	14	15	15	15	15	15	15	15	15	15	15	15	15	15	15	15	15	15	15	15	15	14	14	14	14	14	14	14	14	12	12	12	12	12	12	12	12	17	17	17	17	17	17	17	17	16	16	16	16	17	17	17	17	17	17	17	17	14	14	14	14	15	15	15	15	15	15	15	15	15	15	15	15	15	15	15	15	15	15	15	15	14	14	14	14	14	14	14	14	14	14	14	14	16	16	16	16	16	16	16	16	17	17	17	17	17	17	17	17	16	16	16	16	16	16	16	16	16	16	16	16	16	16	16	16	20	20	20	20	17	17	17	17	17	17	17	17	16	16	16	16	16	16	16	16	18	18	18	18	22	22	22	22	20	20	20	20	17	17	17	17	17	17	17	17	16	16	16	16	17	17	17	17	15	15	15	15	12	12	12	12	12	12	12	12	12	12	12	12	12	12	12	12	12	12	12	12	15	15	15	15	14	14	14	14	14	14	14	14	17	17	17	17	16	16	16	16	16	16	16	16	18	18	18	18	18	18	18	18	18	18	18	18	20	20	20	20	20	20	20	20	20	20	20	20	20	20	20	20	22	22	22	22	22	22	22	22	22	22	22	22	22	22	22	22	22	22	22	22	21	21	21	21	24	24	24	24	31	31	31	31	31	31	31	31	25	25	25	25	22	22	22	22	22	22	22	22	22	22	22	22	26	26	26	26	29	29	29	29	27	27	27	27	26	26	26	26	23	23	23	23	23	23	23	23	31	31	31	31
13	13	13	13	13	13	13	13	13	13	13	13	12	12	12	12	12	12	12	12	12	12	12	12	12	12	12	12	12	12	12	12	12	12	12	12	12	12	12	12	12	12	12	12	12	12	12	12	12	12	12	12	12	12	12	12	12	12	12	12	14	14	14	14	14	14	14	14	14	14	14	14	15	15	15	15	15	15	15	15	12	12	12	12	12	12	12	12	15	15	15	15	17	17	17	17	14	14	14	14	12	12	12	12	15	15	15	15	17	17	17	17	17	17	17	17	16	16	16	16	14	14	14	14	15	15	15	15	14	14	14	14	15	15	15	15	15	15	15	15	15	15	15	15	15	15	15	15	14	14	14	14	14	14	14	14	14	14	14	14	17	17	17	17	17	17	17	17	17	17	17	17	17	17	17	17	16	16	16	16	16	16	16	16	17	17	17	17	17	17	17	17	16	16	16	16	16	16	16	16	19	19	19	19	16	16	16	16	19	19	19	19	19	19	19	19	18	18	18	18	16	16	16	16	17	17	17	17	17	17	17	17	17	17	17	17	14	14	14	14	15	15	15	15	12	12	12	12	12	12	12	12	12	12	12	12	12	12	12	12	12	12	12	12	12	12	12	12	12	12	12	12	14	14	14	14	14	14	14	14	17	17	17	17	16	16	16	16	16	16	16	16	18	18	18	18	18	18	18	18	20	20	20	20	20	20	20	20	20	20	20	20	20	20	20	20	20	20	20	20	20	20	20	20	20	20	20	20	20	20	20	20	21	21	21	21	21	21	21	21	22	22	22	22	20	20	20	20	21	21	21	21	24	24	24	24	25	25	25	25	21	21	21	21	21	21	21	21	21	21	21	21	23	23	23	23	29	29	29	29	23	23	23	23	26	26	26	26	21	21	21	21	21	21	21	21	21	21	21	21
13	13	13	13	13	13	13	13	13	13	13	13	12	12	12	12	12	12	12	12	12	12	12	12	12	12	12	12	12	12	12	12	12	12	12	12	12	12	12	12	12	12	12	12	12	12	12	12	12	12	12	12	12	12	12	12	12	12	12	12	14	14	14	14	14	14	14	14	14	14	14	14	15	15	15	15	15	15	15	15	12	12	12	12	12	12	12	12	15	15	15	15	17	17	17	17	14	14	14	14	12	12	12	12	15	15	15	15	17	17	17	17	17	17	17	17	16	16	16	16	14	14	14	14	15	15	15	15	14	14	14	14	15	15	15	15	15	15	15	15	15	15	15	15	15	15	15	15	14	14	14	14	14	14	14	14	14	14	14	14	17	17	17	17	17	17	17	17	17	17	17	17	17	17	17	17	16	16	16	16	16	16	16	16	17	17	17	17	17	17	17	17	16	16	16	16	16	16	16	16	19	19	19	19	16	16	16	16	19	19	19	19	19	19	19	19	18	18	18	18	16	16	16	16	17	17	17	17	17	17	17	17	17	17	17	17	14	14	14	14	15	15	15	15	12	12	12	12	12	12	12	12	12	12	12	12	12	12	12	12	12	12	12	12	12	12	12	12	12	12	12	12	14	14	14	14	14	14	14	14	17	17	17	17	16	16	16	16	16	16	16	16	18	18	18	18	18	18	18	18	20	20	20	20	20	20	20	20	20	20	20	20	20	20	20	20	20	20	20	20	20	20	20	20	20	20	20	20	20	20	20	20	21	21	21	21	21	21	21	21	22	22	22	22	20	20	20	20	21	21	21	21	24	24	24	24	25	25	25	25	21	21	21	21	21	21	21	21	21	21	21	21	23	23	23	23	29	29	29	29	23	23	23	23	26	26	26	26	21	21	21	21	21	21	21	21	21	21	21	21
13	13	13	13	13	13	13	13	13	13	13	13	12	12	12	12	12	12	12	12	12	12	12	12	12	12	12	12	12	12	12	12	12	12	12	12	12	12	12	12	12	12	12	12	12	12	12	12	12	12	12	12	12	12	12	12	12	12	12	12	14	14	14	14	14	14	14	14	14	14	14	14	15	15	15	15	15	15	15	15	12	12	12	12	12	12	12	12	15	15	15	15	17	17	17	17	14	14	14	14	12	12	12	12	15	15	15	15	17	17	17	17	17	17	17	17	16	16	16	16	14	14	14	14	15	15	15	15	14	14	14	14	15	15	15	15	15	15	15	15	15	15	15	15	15	15	15	15	14	14	14	14	14	14	14	14	14	14	14	14	17	17	17	17	17	17	17	17	17	17	17	17	17	17	17	17	16	16	16	16	16	16	16	16	17	17	17	17	17	17	17	17	16	16	16	16	16	16	16	16	19	19	19	19	16	16	16	16	19	19	19	19	19	19	19	19	18	18	18	18	16	16	16	16	17	17	17	17	17	17	17	17	17	17	17	17	14	14	14	14	15	15	15	15	12	12	12	12	12	12	12	12	12	12	12	12	12	12	12	12	12	12	12	12	12	12	12	12	12	12	12	12	14	14	14	14	14	14	14	14	17	17	17	17	16	16	16	16	16	16	16	16	18	18	18	18	18	18	18	18	20	20	20	20	20	20	20	20	20	20	20	20	20	20	20	20	20	20	20	20	20	20	20	20	20	20	20	20	20	20	20	20	21	21	21	21	21	21	21	21	22	22	22	22	20	20	20	20	21	21	21	21	24	24	24	24	25	25	25	25	21	21	21	21	21	21	21	21	21	21	21	21	23	23	23	23	29	29	29	29	23	23	23	23	26	26	26	26	21	21	21	21	21	21	21	21	21	21	21	21
13	13	13	13	13	13	13	13	13	13	13	13	12	12	12	12	12	12	12	12	12	12	12	12	12	12	12	12	12	12	12	12	12	12	12	12	12	12	12	12	12	12	12	12	12	12	12	12	12	12	12	12	12	12	12	12	12	12	12	12	14	14	14	14	14	14	14	14	14	14	14	14	15	15	15	15	15	15	15	15	12	12	12	12	12	12	12	12	15	15	15	15	17	17	17	17	14	14	14	14	12	12	12	12	15	15	15	15	17	17	17	17	17	17	17	17	16	16	16	16	14	14	14	14	15	15	15	15	14	14	14	14	15	15	15	15	15	15	15	15	15	15	15	15	15	15	15	15	14	14	14	14	14	14	14	14	14	14	14	14	17	17	17	17	17	17	17	17	17	17	17	17	17	17	17	17	16	16	16	16	16	16	16	16	17	17	17	17	17	17	17	17	16	16	16	16	16	16	16	16	19	19	19	19	16	16	16	16	19	19	19	19	19	19	19	19	18	18	18	18	16	16	16	16	17	17	17	17	17	17	17	17	17	17	17	17	14	14	14	14	15	15	15	15	12	12	12	12	12	12	12	12	12	12	12	12	12	12	12	12	12	12	12	12	12	12	12	12	12	12	12	12	14	14	14	14	14	14	14	14	17	17	17	17	16	16	16	16	16	16	16	16	18	18	18	18	18	18	18	18	20	20	20	20	20	20	20	20	20	20	20	20	20	20	20	20	20	20	20	20	20	20	20	20	20	20	20	20	20	20	20	20	21	21	21	21	21	21	21	21	22	22	22	22	20	20	20	20	21	21	21	21	24	24	24	24	25	25	25	25	21	21	21	21	21	21	21	21	21	21	21	21	23	23	23	23	29	29	29	29	23	23	23	23	26	26	26	26	21	21	21	21	21	21	21	21	21	21	21	21
13	13	13	13	13	13	13	13	13	13	13	13	13	13	13	13	13	13	13	13	12	12	12	12	12	12	12	12	12	12	12	12	12	12	12	12	12	12	12	12	12	12	12	12	12	12	12	12	12	12	12	12	12	12	12	12	12	12	12	12	12	12	12	12	15	15	15	15	15	15	15	15	15	15	15	15	15	15	15	15	15	15	15	15	15	15	15	15	17	17	17	17	17	17	17	17	15	15	15	15	12	12	12	12	15	15	15	15	17	17	17	17	16	16	16	16	17	17	17	17	15	15	15	15	15	15	15	15	15	15	15	15	12	12	12	12	12	12	12	12	12	12	12	12	14	14	14	14	14	14	14	14	14	14	14	14	17	17	17	17	17	17	17	17	17	17	17	17	17	17	17	17	17	17	17	17	16	16	16	16	16	16	16	16	16	16	16	16	16	16	16	16	16	16	16	16	16	16	16	16	16	16	16	16	18	18	18	18	22	22	22	22	21	21	21	21	20	20	20	20	16	16	16	16	16	16	16	16	16	16	16	16	16	16	16	16	15	15	15	15	12	12	12	12	12	12	12	12	12	12	12	12	12	12	12	12	12	12	12	12	12	12	12	12	12	12	12	12	15	15	15	15	14	14	14	14	17	17	17	17	17	17	17	17	16	16	16	16	16	16	16	16	18	18	18	18	20	20	20	20	20	20	20	20	20	20	20	20	20	20	20	20	20	20	20	20	20	20	20	20	20	20	20	20	20	20	20	20	20	20	20	20	21	21	21	21	24	24	24	24	26	26	26	26	16	16	16	16	17	17	17	17	31	31	31	31	30	30	30	30	27	27	27	27	26	26	26	26	21	21	21	21	24	24	24	24	26	26	26	26	21	21	21	21	24	24	24	24	21	21	21	21	21	21	21	21	21	21	21	21
13	13	13	13	13	13	13	13	13	13	13	13	13	13	13	13	13	13	13	13	12	12	12	12	12	12	12	12	12	12	12	12	12	12	12	12	12	12	12	12	12	12	12	12	12	12	12	12	12	12	12	12	12	12	12	12	12	12	12	12	12	12	12	12	15	15	15	15	15	15	15	15	15	15	15	15	15	15	15	15	15	15	15	15	15	15	15	15	17	17	17	17	17	17	17	17	15	15	15	15	12	12	12	12	15	15	15	15	17	17	17	17	16	16	16	16	17	17	17	17	15	15	15	15	15	15	15	15	15	15	15	15	12	12	12	12	12	12	12	12	12	12	12	12	14	14	14	14	14	14	14	14	14	14	14	14	17	17	17	17	17	17	17	17	17	17	17	17	17	17	17	17	17	17	17	17	16	16	16	16	16	16	16	16	16	16	16	16	16	16	16	16	16	16	16	16	16	16	16	16	16	16	16	16	18	18	18	18	22	22	22	22	21	21	21	21	20	20	20	20	16	16	16	16	16	16	16	16	16	16	16	16	16	16	16	16	15	15	15	15	12	12	12	12	12	12	12	12	12	12	12	12	12	12	12	12	12	12	12	12	12	12	12	12	12	12	12	12	15	15	15	15	14	14	14	14	17	17	17	17	17	17	17	17	16	16	16	16	16	16	16	16	18	18	18	18	20	20	20	20	20	20	20	20	20	20	20	20	20	20	20	20	20	20	20	20	20	20	20	20	20	20	20	20	20	20	20	20	20	20	20	20	21	21	21	21	24	24	24	24	26	26	26	26	16	16	16	16	17	17	17	17	31	31	31	31	30	30	30	30	27	27	27	27	26	26	26	26	21	21	21	21	24	24	24	24	26	26	26	26	21	21	21	21	24	24	24	24	21	21	21	21	21	21	21	21	21	21	21	21
13	13	13	13	13	13	13	13	13	13	13	13	13	13	13	13	13	13	13	13	12	12	12	12	12	12	12	12	12	12	12	12	12	12	12	12	12	12	12	12	12	12	12	12	12	12	12	12	12	12	12	12	12	12	12	12	12	12	12	12	12	12	12	12	15	15	15	15	15	15	15	15	15	15	15	15	15	15	15	15	15	15	15	15	15	15	15	15	17	17	17	17	17	17	17	17	15	15	15	15	12	12	12	12	15	15	15	15	17	17	17	17	16	16	16	16	17	17	17	17	15	15	15	15	15	15	15	15	15	15	15	15	12	12	12	12	12	12	12	12	12	12	12	12	14	14	14	14	14	14	14	14	14	14	14	14	17	17	17	17	17	17	17	17	17	17	17	17	17	17	17	17	17	17	17	17	16	16	16	16	16	16	16	16	16	16	16	16	16	16	16	16	16	16	16	16	16	16	16	16	16	16	16	16	18	18	18	18	22	22	22	22	21	21	21	21	20	20	20	20	16	16	16	16	16	16	16	16	16	16	16	16	16	16	16	16	15	15	15	15	12	12	12	12	12	12	12	12	12	12	12	12	12	12	12	12	12	12	12	12	12	12	12	12	12	12	12	12	15	15	15	15	14	14	14	14	17	17	17	17	17	17	17	17	16	16	16	16	16	16	16	16	18	18	18	18	20	20	20	20	20	20	20	20	20	20	20	20	20	20	20	20	20	20	20	20	20	20	20	20	20	20	20	20	20	20	20	20	20	20	20	20	21	21	21	21	24	24	24	24	26	26	26	26	16	16	16	16	17	17	17	17	31	31	31	31	30	30	30	30	27	27	27	27	26	26	26	26	21	21	21	21	24	24	24	24	26	26	26	26	21	21	21	21	24	24	24	24	21	21	21	21	21	21	21	21	21	21	21	21
13	13	13	13	13	13	13	13	13	13	13	13	13	13	13	13	13	13	13	13	12	12	12	12	12	12	12	12	12	12	12	12	12	12	12	12	12	12	12	12	12	12	12	12	12	12	12	12	12	12	12	12	12	12	12	12	12	12	12	12	12	12	12	12	15	15	15	15	15	15	15	15	15	15	15	15	15	15	15	15	15	15	15	15	15	15	15	15	17	17	17	17	17	17	17	17	15	15	15	15	12	12	12	12	15	15	15	15	17	17	17	17	16	16	16	16	17	17	17	17	15	15	15	15	15	15	15	15	15	15	15	15	12	12	12	12	12	12	12	12	12	12	12	12	14	14	14	14	14	14	14	14	14	14	14	14	17	17	17	17	17	17	17	17	17	17	17	17	17	17	17	17	17	17	17	17	16	16	16	16	16	16	16	16	16	16	16	16	16	16	16	16	16	16	16	16	16	16	16	16	16	16	16	16	18	18	18	18	22	22	22	22	21	21	21	21	20	20	20	20	16	16	16	16	16	16	16	16	16	16	16	16	16	16	16	16	15	15	15	15	12	12	12	12	12	12	12	12	12	12	12	12	12	12	12	12	12	12	12	12	12	12	12	12	12	12	12	12	15	15	15	15	14	14	14	14	17	17	17	17	17	17	17	17	16	16	16	16	16	16	16	16	18	18	18	18	20	20	20	20	20	20	20	20	20	20	20	20	20	20	20	20	20	20	20	20	20	20	20	20	20	20	20	20	20	20	20	20	20	20	20	20	21	21	21	21	24	24	24	24	26	26	26	26	16	16	16	16	17	17	17	17	31	31	31	31	30	30	30	30	27	27	27	27	26	26	26	26	21	21	21	21	24	24	24	24	26	26	26	26	21	21	21	21	24	24	24	24	21	21	21	21	21	21	21	21	21	21	21	21
13	13	13	13	13	13	13	13	13	13	13	13	13	13	13	13	13	13	13	13	12	12	12	12	12	12	12	12	12	12	12	12	12	12	12	12	12	12	12	12	12	12	12	12	12	12	12	12	12	12	12	12	12	12	12	12	12	12	12	12	12	12	12	12	12	12	12	12	15	15	15	15	15	15	15	15	15	15	15	15	15	15	15	15	15	15	15	15	14	14	14	14	17	17	17	17	12	12	12	12	15	15	15	15	12	12	12	12	17	17	17	17	16	16	16	16	16	16	16	16	17	17	17	17	15	15	15	15	15	15	15	15	12	12	12	12	12	12	12	12	12	12	12	12	12	12	12	12	15	15	15	15	14	14	14	14	14	14	14	14	17	17	17	17	17	17	17	17	17	17	17	17	17	17	17	17	16	16	16	16	16	16	16	16	16	16	16	16	16	16	16	16	16	16	16	16	16	16	16	16	18	18	18	18	20	20	20	20	21	21	21	21	18	18	18	18	18	18	18	18	18	18	18	18	20	20	20	20	20	20	20	20	19	19	19	19	15	15	15	15	12	12	12	12	12	12	12	12	12	12	12	12	12	12	12	12	12	12	12	12	15	15	15	15	15	15	15	15	14	14	14	14	17	17	17	17	16	16	16	16	16	16	16	16	19	19	19	19	18	18	18	18	20	20	20	20	20	20	20	20	20	20	20	20	18	18	18	18	18	18	18	18	18	18	18	18	20	20	20	20	22	22	22	22	24	24	24	24	23	23	23	23	24	24	24	24	23	23	23	23	23	23	23	23	17	17	17	17	21	21	21	21	32	32	32	32	30	30	30	30	26	26	26	26	18	18	18	18	18	18	18	18	18	18	18	18	22	22	22	22	21	21	21	21	21	21	21	21	21	21	21	21	24	24	24	24	24	24	24	24
13	13	13	13	13	13	13	13	13	13	13	13	13	13	13	13	13	13	13	13	12	12	12	12	12	12	12	12	12	12	12	12	12	12	12	12	12	12	12	12	12	12	12	12	12	12	12	12	12	12	12	12	12	12	12	12	12	12	12	12	12	12	12	12	12	12	12	12	15	15	15	15	15	15	15	15	15	15	15	15	15	15	15	15	15	15	15	15	14	14	14	14	17	17	17	17	12	12	12	12	15	15	15	15	12	12	12	12	17	17	17	17	16	16	16	16	16	16	16	16	17	17	17	17	15	15	15	15	15	15	15	15	12	12	12	12	12	12	12	12	12	12	12	12	12	12	12	12	15	15	15	15	14	14	14	14	14	14	14	14	17	17	17	17	17	17	17	17	17	17	17	17	17	17	17	17	16	16	16	16	16	16	16	16	16	16	16	16	16	16	16	16	16	16	16	16	16	16	16	16	18	18	18	18	20	20	20	20	21	21	21	21	18	18	18	18	18	18	18	18	18	18	18	18	20	20	20	20	20	20	20	20	19	19	19	19	15	15	15	15	12	12	12	12	12	12	12	12	12	12	12	12	12	12	12	12	12	12	12	12	15	15	15	15	15	15	15	15	14	14	14	14	17	17	17	17	16	16	16	16	16	16	16	16	19	19	19	19	18	18	18	18	20	20	20	20	20	20	20	20	20	20	20	20	18	18	18	18	18	18	18	18	18	18	18	18	20	20	20	20	22	22	22	22	24	24	24	24	23	23	23	23	24	24	24	24	23	23	23	23	23	23	23	23	17	17	17	17	21	21	21	21	32	32	32	32	30	30	30	30	26	26	26	26	18	18	18	18	18	18	18	18	18	18	18	18	22	22	22	22	21	21	21	21	21	21	21	21	21	21	21	21	24	24	24	24	24	24	24	24
13	13	13	13	13	13	13	13	13	13	13	13	13	13	13	13	13	13	13	13	12	12	12	12	12	12	12	12	12	12	12	12	12	12	12	12	12	12	12	12	12	12	12	12	12	12	12	12	12	12	12	12	12	12	12	12	12	12	12	12	12	12	12	12	12	12	12	12	15	15	15	15	15	15	15	15	15	15	15	15	15	15	15	15	15	15	15	15	14	14	14	14	17	17	17	17	12	12	12	12	15	15	15	15	12	12	12	12	17	17	17	17	16	16	16	16	16	16	16	16	17	17	17	17	15	15	15	15	15	15	15	15	12	12	12	12	12	12	12	12	12	12	12	12	12	12	12	12	15	15	15	15	14	14	14	14	14	14	14	14	17	17	17	17	17	17	17	17	17	17	17	17	17	17	17	17	16	16	16	16	16	16	16	16	16	16	16	16	16	16	16	16	16	16	16	16	16	16	16	16	18	18	18	18	20	20	20	20	21	21	21	21	18	18	18	18	18	18	18	18	18	18	18	18	20	20	20	20	20	20	20	20	19	19	19	19	15	15	15	15	12	12	12	12	12	12	12	12	12	12	12	12	12	12	12	12	12	12	12	12	15	15	15	15	15	15	15	15	14	14	14	14	17	17	17	17	16	16	16	16	16	16	16	16	19	19	19	19	18	18	18	18	20	20	20	20	20	20	20	20	20	20	20	20	18	18	18	18	18	18	18	18	18	18	18	18	20	20	20	20	22	22	22	22	24	24	24	24	23	23	23	23	24	24	24	24	23	23	23	23	23	23	23	23	17	17	17	17	21	21	21	21	32	32	32	32	30	30	30	30	26	26	26	26	18	18	18	18	18	18	18	18	18	18	18	18	22	22	22	22	21	21	21	21	21	21	21	21	21	21	21	21	24	24	24	24	24	24	24	24
13	13	13	13	13	13	13	13	13	13	13	13	13	13	13	13	13	13	13	13	12	12	12	12	12	12	12	12	12	12	12	12	12	12	12	12	12	12	12	12	12	12	12	12	12	12	12	12	12	12	12	12	12	12	12	12	12	12	12	12	12	12	12	12	12	12	12	12	15	15	15	15	15	15	15	15	15	15	15	15	15	15	15	15	15	15	15	15	14	14	14	14	17	17	17	17	12	12	12	12	15	15	15	15	12	12	12	12	17	17	17	17	16	16	16	16	16	16	16	16	17	17	17	17	15	15	15	15	15	15	15	15	12	12	12	12	12	12	12	12	12	12	12	12	12	12	12	12	15	15	15	15	14	14	14	14	14	14	14	14	17	17	17	17	17	17	17	17	17	17	17	17	17	17	17	17	16	16	16	16	16	16	16	16	16	16	16	16	16	16	16	16	16	16	16	16	16	16	16	16	18	18	18	18	20	20	20	20	21	21	21	21	18	18	18	18	18	18	18	18	18	18	18	18	20	20	20	20	20	20	20	20	19	19	19	19	15	15	15	15	12	12	12	12	12	12	12	12	12	12	12	12	12	12	12	12	12	12	12	12	15	15	15	15	15	15	15	15	14	14	14	14	17	17	17	17	16	16	16	16	16	16	16	16	19	19	19	19	18	18	18	18	20	20	20	20	20	20	20	20	20	20	20	20	18	18	18	18	18	18	18	18	18	18	18	18	20	20	20	20	22	22	22	22	24	24	24	24	23	23	23	23	24	24	24	24	23	23	23	23	23	23	23	23	17	17	17	17	21	21	21	21	32	32	32	32	30	30	30	30	26	26	26	26	18	18	18	18	18	18	18	18	18	18	18	18	22	22	22	22	21	21	21	21	21	21	21	21	21	21	21	21	24	24	24	24	24	24	24	24
13	13	13	13	12	12	12	12	12	12	12	12	12	12	12	12	13	13	13	13	13	13	13	13	12	12	12	12	13	13	13	13	12	12	12	12	12	12	12	12	12	12	12	12	12	12	12	12	12	12	12	12	12	12	12	12	12	12	12	12	12	12	12	12	12	12	12	12	12	12	12	12	15	15	15	15	15	15	15	15	15	15	15	15	15	15	15	15	14	14	14	14	14	14	14	14	15	15	15	15	17	17	17	17	15	15	15	15	15	15	15	15	16	16	16	16	16	16	16	16	16	16	16	16	17	17	17	17	15	15	15	15	12	12	12	12	12	12	12	12	12	12	12	12	12	12	12	12	12	12	12	12	15	15	15	15	17	17	17	17	17	17	17	17	17	17	17	17	16	16	16	16	16	16	16	16	16	16	16	16	17	17	17	17	17	17	17	17	16	16	16	16	16	16	16	16	19	19	19	19	20	20	20	20	20	20	20	20	22	22	22	22	18	18	18	18	16	16	16	16	18	18	18	18	18	18	18	18	19	19	19	19	17	17	17	17	12	12	12	12	12	12	12	12	12	12	12	12	12	12	12	12	15	15	15	15	15	15	15	15	15	15	15	15	14	14	14	14	17	17	17	17	17	17	17	17	16	16	16	16	16	16	16	16	16	16	16	16	19	19	19	19	18	18	18	18	20	20	20	20	18	18	18	18	18	18	18	18	19	19	19	19	18	18	18	18	20	20	20	20	21	21	21	21	23	23	23	23	23	23	23	23	26	26	26	26	21	21	21	21	16	16	16	16	14	14	14	14	24	24	24	24	25	25	25	25	24	24	24	24	20	20	20	20	20	20	20	20	20	20	20	20	20	20	20	20	29	29	29	29	22	22	22	22	21	21	21	21	21	21	21	21	21	21	21	21	22	22	22	22
13	13	13	13	12	12	12	12	12	12	12	12	12	12	12	12	13	13	13	13	13	13	13	13	12	12	12	12	13	13	13	13	12	12	12	12	12	12	12	12	12	12	12	12	12	12	12	12	12	12	12	12	12	12	12	12	12	12	12	12	12	12	12	12	12	12	12	12	12	12	12	12	15	15	15	15	15	15	15	15	15	15	15	15	15	15	15	15	14	14	14	14	14	14	14	14	15	15	15	15	17	17	17	17	15	15	15	15	15	15	15	15	16	16	16	16	16	16	16	16	16	16	16	16	17	17	17	17	15	15	15	15	12	12	12	12	12	12	12	12	12	12	12	12	12	12	12	12	12	12	12	12	15	15	15	15	17	17	17	17	17	17	17	17	17	17	17	17	16	16	16	16	16	16	16	16	16	16	16	16	17	17	17	17	17	17	17	17	16	16	16	16	16	16	16	16	19	19	19	19	20	20	20	20	20	20	20	20	22	22	22	22	18	18	18	18	16	16	16	16	18	18	18	18	18	18	18	18	19	19	19	19	17	17	17	17	12	12	12	12	12	12	12	12	12	12	12	12	12	12	12	12	15	15	15	15	15	15	15	15	15	15	15	15	14	14	14	14	17	17	17	17	17	17	17	17	16	16	16	16	16	16	16	16	16	16	16	16	19	19	19	19	18	18	18	18	20	20	20	20	18	18	18	18	18	18	18	18	19	19	19	19	18	18	18	18	20	20	20	20	21	21	21	21	23	23	23	23	23	23	23	23	26	26	26	26	21	21	21	21	16	16	16	16	14	14	14	14	24	24	24	24	25	25	25	25	24	24	24	24	20	20	20	20	20	20	20	20	20	20	20	20	20	20	20	20	29	29	29	29	22	22	22	22	21	21	21	21	21	21	21	21	21	21	21	21	22	22	22	22
13	13	13	13	12	12	12	12	12	12	12	12	12	12	12	12	13	13	13	13	13	13	13	13	12	12	12	12	13	13	13	13	12	12	12	12	12	12	12	12	12	12	12	12	12	12	12	12	12	12	12	12	12	12	12	12	12	12	12	12	12	12	12	12	12	12	12	12	12	12	12	12	15	15	15	15	15	15	15	15	15	15	15	15	15	15	15	15	14	14	14	14	14	14	14	14	15	15	15	15	17	17	17	17	15	15	15	15	15	15	15	15	16	16	16	16	16	16	16	16	16	16	16	16	17	17	17	17	15	15	15	15	12	12	12	12	12	12	12	12	12	12	12	12	12	12	12	12	12	12	12	12	15	15	15	15	17	17	17	17	17	17	17	17	17	17	17	17	16	16	16	16	16	16	16	16	16	16	16	16	17	17	17	17	17	17	17	17	16	16	16	16	16	16	16	16	19	19	19	19	20	20	20	20	20	20	20	20	22	22	22	22	18	18	18	18	16	16	16	16	18	18	18	18	18	18	18	18	19	19	19	19	17	17	17	17	12	12	12	12	12	12	12	12	12	12	12	12	12	12	12	12	15	15	15	15	15	15	15	15	15	15	15	15	14	14	14	14	17	17	17	17	17	17	17	17	16	16	16	16	16	16	16	16	16	16	16	16	19	19	19	19	18	18	18	18	20	20	20	20	18	18	18	18	18	18	18	18	19	19	19	19	18	18	18	18	20	20	20	20	21	21	21	21	23	23	23	23	23	23	23	23	26	26	26	26	21	21	21	21	16	16	16	16	14	14	14	14	24	24	24	24	25	25	25	25	24	24	24	24	20	20	20	20	20	20	20	20	20	20	20	20	20	20	20	20	29	29	29	29	22	22	22	22	21	21	21	21	21	21	21	21	21	21	21	21	22	22	22	22
13	13	13	13	12	12	12	12	12	12	12	12	12	12	12	12	13	13	13	13	13	13	13	13	12	12	12	12	13	13	13	13	12	12	12	12	12	12	12	12	12	12	12	12	12	12	12	12	12	12	12	12	12	12	12	12	12	12	12	12	12	12	12	12	12	12	12	12	12	12	12	12	15	15	15	15	15	15	15	15	15	15	15	15	15	15	15	15	14	14	14	14	14	14	14	14	15	15	15	15	17	17	17	17	15	15	15	15	15	15	15	15	16	16	16	16	16	16	16	16	16	16	16	16	17	17	17	17	15	15	15	15	12	12	12	12	12	12	12	12	12	12	12	12	12	12	12	12	12	12	12	12	15	15	15	15	17	17	17	17	17	17	17	17	17	17	17	17	16	16	16	16	16	16	16	16	16	16	16	16	17	17	17	17	17	17	17	17	16	16	16	16	16	16	16	16	19	19	19	19	20	20	20	20	20	20	20	20	22	22	22	22	18	18	18	18	16	16	16	16	18	18	18	18	18	18	18	18	19	19	19	19	17	17	17	17	12	12	12	12	12	12	12	12	12	12	12	12	12	12	12	12	15	15	15	15	15	15	15	15	15	15	15	15	14	14	14	14	17	17	17	17	17	17	17	17	16	16	16	16	16	16	16	16	16	16	16	16	19	19	19	19	18	18	18	18	20	20	20	20	18	18	18	18	18	18	18	18	19	19	19	19	18	18	18	18	20	20	20	20	21	21	21	21	23	23	23	23	23	23	23	23	26	26	26	26	21	21	21	21	16	16	16	16	14	14	14	14	24	24	24	24	25	25	25	25	24	24	24	24	20	20	20	20	20	20	20	20	20	20	20	20	20	20	20	20	29	29	29	29	22	22	22	22	21	21	21	21	21	21	21	21	21	21	21	21	22	22	22	22
13	13	13	13	12	12	12	12	12	12	12	12	12	12	12	12	12	12	12	12	12	12	12	12	12	12	12	12	12	12	12	12	12	12	12	12	13	13	13	13	12	12	12	12	12	12	12	12	12	12	12	12	12	12	12	12	12	12	12	12	12	12	12	12	12	12	12	12	12	12	12	12	15	15	15	15	14	14	14	14	14	14	14	14	15	15	15	15	14	14	14	14	14	14	14	14	14	14	14	14	14	14	14	14	15	15	15	15	12	12	12	12	16	16	16	16	16	16	16	16	16	16	16	16	16	16	16	16	15	15	15	15	12	12	12	12	12	12	12	12	12	12	12	12	12	12	12	12	12	12	12	12	14	14	14	14	17	17	17	17	17	17	17	17	16	16	16	16	16	16	16	16	16	16	16	16	16	16	16	16	16	16	16	16	17	17	17	17	17	17	17	17	16	16	16	16	16	16	16	16	20	20	20	20	20	20	20	20	22	22	22	22	19	19	19	19	19	19	19	19	19	19	19	19	16	16	16	16	14	14	14	14	12	12	12	12	12	12	12	12	12	12	12	12	12	12	12	12	12	12	12	12	12	12	12	12	15	15	15	15	15	15	15	15	14	14	14	14	17	17	17	17	17	17	17	17	17	17	17	17	16	16	16	16	16	16	16	16	16	16	16	16	16	16	16	16	16	16	16	16	18	18	18	18	19	19	19	19	18	18	18	18	20	20	20	20	20	20	20	20	22	22	22	22	20	20	20	20	18	18	18	18	16	16	16	16	17	17	17	17	14	14	14	14	14	14	14	14	20	20	20	20	21	21	21	21	21	21	21	21	26	26	26	26	24	24	24	24	24	24	24	24	20	20	20	20	18	18	18	18	20	20	20	20	21	21	21	21	22	22	22	22	20	20	20	20	16	16	16	16
13	13	13	13	12	12	12	12	12	12	12	12	12	12	12	12	12	12	12	12	12	12	12	12	12	12	12	12	12	12	12	12	12	12	12	12	13	13	13	13	12	12	12	12	12	12	12	12	12	12	12	12	12	12	12	12	12	12	12	12	12	12	12	12	12	12	12	12	12	12	12	12	15	15	15	15	14	14	14	14	14	14	14	14	15	15	15	15	14	14	14	14	14	14	14	14	14	14	14	14	14	14	14	14	15	15	15	15	12	12	12	12	16	16	16	16	16	16	16	16	16	16	16	16	16	16	16	16	15	15	15	15	12	12	12	12	12	12	12	12	12	12	12	12	12	12	12	12	12	12	12	12	14	14	14	14	17	17	17	17	17	17	17	17	16	16	16	16	16	16	16	16	16	16	16	16	16	16	16	16	16	16	16	16	17	17	17	17	17	17	17	17	16	16	16	16	16	16	16	16	20	20	20	20	20	20	20	20	22	22	22	22	19	19	19	19	19	19	19	19	19	19	19	19	16	16	16	16	14	14	14	14	12	12	12	12	12	12	12	12	12	12	12	12	12	12	12	12	12	12	12	12	12	12	12	12	15	15	15	15	15	15	15	15	14	14	14	14	17	17	17	17	17	17	17	17	17	17	17	17	16	16	16	16	16	16	16	16	16	16	16	16	16	16	16	16	16	16	16	16	18	18	18	18	19	19	19	19	18	18	18	18	20	20	20	20	20	20	20	20	22	22	22	22	20	20	20	20	18	18	18	18	16	16	16	16	17	17	17	17	14	14	14	14	14	14	14	14	20	20	20	20	21	21	21	21	21	21	21	21	26	26	26	26	24	24	24	24	24	24	24	24	20	20	20	20	18	18	18	18	20	20	20	20	21	21	21	21	22	22	22	22	20	20	20	20	16	16	16	16
13	13	13	13	12	12	12	12	12	12	12	12	12	12	12	12	12	12	12	12	12	12	12	12	12	12	12	12	12	12	12	12	12	12	12	12	13	13	13	13	12	12	12	12	12	12	12	12	12	12	12	12	12	12	12	12	12	12	12	12	12	12	12	12	12	12	12	12	12	12	12	12	15	15	15	15	14	14	14	14	14	14	14	14	15	15	15	15	14	14	14	14	14	14	14	14	14	14	14	14	14	14	14	14	15	15	15	15	12	12	12	12	16	16	16	16	16	16	16	16	16	16	16	16	16	16	16	16	15	15	15	15	12	12	12	12	12	12	12	12	12	12	12	12	12	12	12	12	12	12	12	12	14	14	14	14	17	17	17	17	17	17	17	17	16	16	16	16	16	16	16	16	16	16	16	16	16	16	16	16	16	16	16	16	17	17	17	17	17	17	17	17	16	16	16	16	16	16	16	16	20	20	20	20	20	20	20	20	22	22	22	22	19	19	19	19	19	19	19	19	19	19	19	19	16	16	16	16	14	14	14	14	12	12	12	12	12	12	12	12	12	12	12	12	12	12	12	12	12	12	12	12	12	12	12	12	15	15	15	15	15	15	15	15	14	14	14	14	17	17	17	17	17	17	17	17	17	17	17	17	16	16	16	16	16	16	16	16	16	16	16	16	16	16	16	16	16	16	16	16	18	18	18	18	19	19	19	19	18	18	18	18	20	20	20	20	20	20	20	20	22	22	22	22	20	20	20	20	18	18	18	18	16	16	16	16	17	17	17	17	14	14	14	14	14	14	14	14	20	20	20	20	21	21	21	21	21	21	21	21	26	26	26	26	24	24	24	24	24	24	24	24	20	20	20	20	18	18	18	18	20	20	20	20	21	21	21	21	22	22	22	22	20	20	20	20	16	16	16	16
13	13	13	13	12	12	12	12	12	12	12	12	12	12	12	12	12	12	12	12	12	12	12	12	12	12	12	12	12	12	12	12	12	12	12	12	13	13	13	13	12	12	12	12	12	12	12	12	12	12	12	12	12	12	12	12	12	12	12	12	12	12	12	12	12	12	12	12	12	12	12	12	15	15	15	15	14	14	14	14	14	14	14	14	15	15	15	15	14	14	14	14	14	14	14	14	14	14	14	14	14	14	14	14	15	15	15	15	12	12	12	12	16	16	16	16	16	16	16	16	16	16	16	16	16	16	16	16	15	15	15	15	12	12	12	12	12	12	12	12	12	12	12	12	12	12	12	12	12	12	12	12	14	14	14	14	17	17	17	17	17	17	17	17	16	16	16	16	16	16	16	16	16	16	16	16	16	16	16	16	16	16	16	16	17	17	17	17	17	17	17	17	16	16	16	16	16	16	16	16	20	20	20	20	20	20	20	20	22	22	22	22	19	19	19	19	19	19	19	19	19	19	19	19	16	16	16	16	14	14	14	14	12	12	12	12	12	12	12	12	12	12	12	12	12	12	12	12	12	12	12	12	12	12	12	12	15	15	15	15	15	15	15	15	14	14	14	14	17	17	17	17	17	17	17	17	17	17	17	17	16	16	16	16	16	16	16	16	16	16	16	16	16	16	16	16	16	16	16	16	18	18	18	18	19	19	19	19	18	18	18	18	20	20	20	20	20	20	20	20	22	22	22	22	20	20	20	20	18	18	18	18	16	16	16	16	17	17	17	17	14	14	14	14	14	14	14	14	20	20	20	20	21	21	21	21	21	21	21	21	26	26	26	26	24	24	24	24	24	24	24	24	20	20	20	20	18	18	18	18	20	20	20	20	21	21	21	21	22	22	22	22	20	20	20	20	16	16	16	16
11	11	11	11	12	12	12	12	12	12	12	12	12	12	12	12	12	12	12	12	12	12	12	12	12	12	12	12	12	12	12	12	12	12	12	12	12	12	12	12	12	12	12	12	12	12	12	12	12	12	12	12	12	12	12	12	12	12	12	12	15	15	15	15	14	14	14	14	17	17	17	17	17	17	17	17	17	17	17	17	14	14	14	14	15	15	15	15	14	14	14	14	14	14	14	14	15	15	15	15	12	12	12	12	14	14	14	14	12	12	12	12	15	15	15	15	17	17	17	17	17	17	17	17	17	17	17	17	12	12	12	12	12	12	12	12	12	12	12	12	12	12	12	12	12	12	12	12	12	12	12	12	14	14	14	14	17	17	17	17	17	17	17	17	16	16	16	16	16	16	16	16	16	16	16	16	16	16	16	16	16	16	16	16	17	17	17	17	15	15	15	15	14	14	14	14	16	16	16	16	16	16	16	16	16	16	16	16	17	17	17	17	17	17	17	17	16	16	16	16	19	19	19	19	14	14	14	14	12	12	12	12	12	12	12	12	12	12	12	12	12	12	12	12	12	12	12	12	12	12	12	12	12	12	12	12	15	15	15	15	15	15	15	15	14	14	14	14	14	14	14	14	17	17	17	17	17	17	17	17	17	17	17	17	17	17	17	17	17	17	17	17	16	16	16	16	19	19	19	19	20	20	20	20	18	18	18	18	20	20	20	20	22	22	22	22	21	21	21	21	20	20	20	20	16	16	16	16	16	16	16	16	14	14	14	14	17	17	17	17	17	17	17	17	20	20	20	20	22	22	22	22	28	28	28	28	27	27	27	27	31	31	31	31	27	27	27	27	28	28	28	28	20	20	20	20	16	16	16	16	19	19	19	19	23	23	23	23	20	20	20	20	16	16	16	16	16	16	16	16
11	11	11	11	12	12	12	12	12	12	12	12	12	12	12	12	12	12	12	12	12	12	12	12	12	12	12	12	12	12	12	12	12	12	12	12	12	12	12	12	12	12	12	12	12	12	12	12	12	12	12	12	12	12	12	12	12	12	12	12	15	15	15	15	14	14	14	14	17	17	17	17	17	17	17	17	17	17	17	17	14	14	14	14	15	15	15	15	14	14	14	14	14	14	14	14	15	15	15	15	12	12	12	12	14	14	14	14	12	12	12	12	15	15	15	15	17	17	17	17	17	17	17	17	17	17	17	17	12	12	12	12	12	12	12	12	12	12	12	12	12	12	12	12	12	12	12	12	12	12	12	12	14	14	14	14	17	17	17	17	17	17	17	17	16	16	16	16	16	16	16	16	16	16	16	16	16	16	16	16	16	16	16	16	17	17	17	17	15	15	15	15	14	14	14	14	16	16	16	16	16	16	16	16	16	16	16	16	17	17	17	17	17	17	17	17	16	16	16	16	19	19	19	19	14	14	14	14	12	12	12	12	12	12	12	12	12	12	12	12	12	12	12	12	12	12	12	12	12	12	12	12	12	12	12	12	15	15	15	15	15	15	15	15	14	14	14	14	14	14	14	14	17	17	17	17	17	17	17	17	17	17	17	17	17	17	17	17	17	17	17	17	16	16	16	16	19	19	19	19	20	20	20	20	18	18	18	18	20	20	20	20	22	22	22	22	21	21	21	21	20	20	20	20	16	16	16	16	16	16	16	16	14	14	14	14	17	17	17	17	17	17	17	17	20	20	20	20	22	22	22	22	28	28	28	28	27	27	27	27	31	31	31	31	27	27	27	27	28	28	28	28	20	20	20	20	16	16	16	16	19	19	19	19	23	23	23	23	20	20	20	20	16	16	16	16	16	16	16	16
11	11	11	11	12	12	12	12	12	12	12	12	12	12	12	12	12	12	12	12	12	12	12	12	12	12	12	12	12	12	12	12	12	12	12	12	12	12	12	12	12	12	12	12	12	12	12	12	12	12	12	12	12	12	12	12	12	12	12	12	15	15	15	15	14	14	14	14	17	17	17	17	17	17	17	17	17	17	17	17	14	14	14	14	15	15	15	15	14	14	14	14	14	14	14	14	15	15	15	15	12	12	12	12	14	14	14	14	12	12	12	12	15	15	15	15	17	17	17	17	17	17	17	17	17	17	17	17	12	12	12	12	12	12	12	12	12	12	12	12	12	12	12	12	12	12	12	12	12	12	12	12	14	14	14	14	17	17	17	17	17	17	17	17	16	16	16	16	16	16	16	16	16	16	16	16	16	16	16	16	16	16	16	16	17	17	17	17	15	15	15	15	14	14	14	14	16	16	16	16	16	16	16	16	16	16	16	16	17	17	17	17	17	17	17	17	16	16	16	16	19	19	19	19	14	14	14	14	12	12	12	12	12	12	12	12	12	12	12	12	12	12	12	12	12	12	12	12	12	12	12	12	12	12	12	12	15	15	15	15	15	15	15	15	14	14	14	14	14	14	14	14	17	17	17	17	17	17	17	17	17	17	17	17	17	17	17	17	17	17	17	17	16	16	16	16	19	19	19	19	20	20	20	20	18	18	18	18	20	20	20	20	22	22	22	22	21	21	21	21	20	20	20	20	16	16	16	16	16	16	16	16	14	14	14	14	17	17	17	17	17	17	17	17	20	20	20	20	22	22	22	22	28	28	28	28	27	27	27	27	31	31	31	31	27	27	27	27	28	28	28	28	20	20	20	20	16	16	16	16	19	19	19	19	23	23	23	23	20	20	20	20	16	16	16	16	16	16	16	16
11	11	11	11	12	12	12	12	12	12	12	12	12	12	12	12	12	12	12	12	12	12	12	12	12	12	12	12	12	12	12	12	12	12	12	12	12	12	12	12	12	12	12	12	12	12	12	12	12	12	12	12	12	12	12	12	12	12	12	12	15	15	15	15	14	14	14	14	17	17	17	17	17	17	17	17	17	17	17	17	14	14	14	14	15	15	15	15	14	14	14	14	14	14	14	14	15	15	15	15	12	12	12	12	14	14	14	14	12	12	12	12	15	15	15	15	17	17	17	17	17	17	17	17	17	17	17	17	12	12	12	12	12	12	12	12	12	12	12	12	12	12	12	12	12	12	12	12	12	12	12	12	14	14	14	14	17	17	17	17	17	17	17	17	16	16	16	16	16	16	16	16	16	16	16	16	16	16	16	16	16	16	16	16	17	17	17	17	15	15	15	15	14	14	14	14	16	16	16	16	16	16	16	16	16	16	16	16	17	17	17	17	17	17	17	17	16	16	16	16	19	19	19	19	14	14	14	14	12	12	12	12	12	12	12	12	12	12	12	12	12	12	12	12	12	12	12	12	12	12	12	12	12	12	12	12	15	15	15	15	15	15	15	15	14	14	14	14	14	14	14	14	17	17	17	17	17	17	17	17	17	17	17	17	17	17	17	17	17	17	17	17	16	16	16	16	19	19	19	19	20	20	20	20	18	18	18	18	20	20	20	20	22	22	22	22	21	21	21	21	20	20	20	20	16	16	16	16	16	16	16	16	14	14	14	14	17	17	17	17	17	17	17	17	20	20	20	20	22	22	22	22	28	28	28	28	27	27	27	27	31	31	31	31	27	27	27	27	28	28	28	28	20	20	20	20	16	16	16	16	19	19	19	19	23	23	23	23	20	20	20	20	16	16	16	16	16	16	16	16
10	10	10	10	13	13	13	13	12	12	12	12	12	12	12	12	12	12	12	12	12	12	12	12	12	12	12	12	15	15	15	15	12	12	12	12	15	15	15	15	15	15	15	15	14	14	14	14	12	12	12	12	12	12	12	12	12	12	12	12	12	12	12	12	12	12	12	12	17	17	17	17	14	14	14	14	15	15	15	15	15	15	15	15	12	12	12	12	12	12	12	12	12	12	12	12	12	12	12	12	15	15	15	15	14	14	14	14	12	12	12	12	12	12	12	12	12	12	12	12	12	12	12	12	12	12	12	12	12	12	12	12	12	12	12	12	12	12	12	12	12	12	12	12	12	12	12	12	12	12	12	12	14	14	14	14	17	17	17	17	17	17	17	17	17	17	17	17	17	17	17	17	16	16	16	16	16	16	16	16	17	17	17	17	14	14	14	14	12	12	12	12	12	12	12	12	15	15	15	15	14	14	14	14	14	14	14	14	15	15	15	15	17	17	17	17	16	16	16	16	12	12	12	12	12	12	12	12	12	12	12	12	12	12	12	12	12	12	12	12	12	12	12	12	12	12	12	12	12	12	12	12	12	12	12	12	14	14	14	14	15	15	15	15	15	15	15	15	14	14	14	14	14	14	14	14	14	14	14	14	17	17	17	17	17	17	17	17	17	17	17	17	16	16	16	16	16	16	16	16	16	16	16	16	20	20	20	20	20	20	20	20	22	22	22	22	21	21	21	21	19	19	19	19	16	16	16	16	16	16	16	16	16	16	16	16	20	20	20	20	21	21	21	21	22	22	22	22	21	21	21	21	30	30	30	30	33	33	33	33	31	31	31	31	27	27	27	27	21	21	21	21	19	19	19	19	16	16	16	16	20	20	20	20	18	18	18	18	14	14	14	14	17	17	17	17	17	17	17	17
10	10	10	10	13	13	13	13	12	12	12	12	12	12	12	12	12	12	12	12	12	12	12	12	12	12	12	12	15	15	15	15	12	12	12	12	15	15	15	15	15	15	15	15	14	14	14	14	12	12	12	12	12	12	12	12	12	12	12	12	12	12	12	12	12	12	12	12	17	17	17	17	14	14	14	14	15	15	15	15	15	15	15	15	12	12	12	12	12	12	12	12	12	12	12	12	12	12	12	12	15	15	15	15	14	14	14	14	12	12	12	12	12	12	12	12	12	12	12	12	12	12	12	12	12	12	12	12	12	12	12	12	12	12	12	12	12	12	12	12	12	12	12	12	12	12	12	12	12	12	12	12	14	14	14	14	17	17	17	17	17	17	17	17	17	17	17	17	17	17	17	17	16	16	16	16	16	16	16	16	17	17	17	17	14	14	14	14	12	12	12	12	12	12	12	12	15	15	15	15	14	14	14	14	14	14	14	14	15	15	15	15	17	17	17	17	16	16	16	16	12	12	12	12	12	12	12	12	12	12	12	12	12	12	12	12	12	12	12	12	12	12	12	12	12	12	12	12	12	12	12	12	12	12	12	12	14	14	14	14	15	15	15	15	15	15	15	15	14	14	14	14	14	14	14	14	14	14	14	14	17	17	17	17	17	17	17	17	17	17	17	17	16	16	16	16	16	16	16	16	16	16	16	16	20	20	20	20	20	20	20	20	22	22	22	22	21	21	21	21	19	19	19	19	16	16	16	16	16	16	16	16	16	16	16	16	20	20	20	20	21	21	21	21	22	22	22	22	21	21	21	21	30	30	30	30	33	33	33	33	31	31	31	31	27	27	27	27	21	21	21	21	19	19	19	19	16	16	16	16	20	20	20	20	18	18	18	18	14	14	14	14	17	17	17	17	17	17	17	17
10	10	10	10	13	13	13	13	12	12	12	12	12	12	12	12	12	12	12	12	12	12	12	12	12	12	12	12	15	15	15	15	12	12	12	12	15	15	15	15	15	15	15	15	14	14	14	14	12	12	12	12	12	12	12	12	12	12	12	12	12	12	12	12	12	12	12	12	17	17	17	17	14	14	14	14	15	15	15	15	15	15	15	15	12	12	12	12	12	12	12	12	12	12	12	12	12	12	12	12	15	15	15	15	14	14	14	14	12	12	12	12	12	12	12	12	12	12	12	12	12	12	12	12	12	12	12	12	12	12	12	12	12	12	12	12	12	12	12	12	12	12	12	12	12	12	12	12	12	12	12	12	14	14	14	14	17	17	17	17	17	17	17	17	17	17	17	17	17	17	17	17	16	16	16	16	16	16	16	16	17	17	17	17	14	14	14	14	12	12	12	12	12	12	12	12	15	15	15	15	14	14	14	14	14	14	14	14	15	15	15	15	17	17	17	17	16	16	16	16	12	12	12	12	12	12	12	12	12	12	12	12	12	12	12	12	12	12	12	12	12	12	12	12	12	12	12	12	12	12	12	12	12	12	12	12	14	14	14	14	15	15	15	15	15	15	15	15	14	14	14	14	14	14	14	14	14	14	14	14	17	17	17	17	17	17	17	17	17	17	17	17	16	16	16	16	16	16	16	16	16	16	16	16	20	20	20	20	20	20	20	20	22	22	22	22	21	21	21	21	19	19	19	19	16	16	16	16	16	16	16	16	16	16	16	16	20	20	20	20	21	21	21	21	22	22	22	22	21	21	21	21	30	30	30	30	33	33	33	33	31	31	31	31	27	27	27	27	21	21	21	21	19	19	19	19	16	16	16	16	20	20	20	20	18	18	18	18	14	14	14	14	17	17	17	17	17	17	17	17
10	10	10	10	13	13	13	13	12	12	12	12	12	12	12	12	12	12	12	12	12	12	12	12	12	12	12	12	15	15	15	15	12	12	12	12	15	15	15	15	15	15	15	15	14	14	14	14	12	12	12	12	12	12	12	12	12	12	12	12	12	12	12	12	12	12	12	12	17	17	17	17	14	14	14	14	15	15	15	15	15	15	15	15	12	12	12	12	12	12	12	12	12	12	12	12	12	12	12	12	15	15	15	15	14	14	14	14	12	12	12	12	12	12	12	12	12	12	12	12	12	12	12	12	12	12	12	12	12	12	12	12	12	12	12	12	12	12	12	12	12	12	12	12	12	12	12	12	12	12	12	12	14	14	14	14	17	17	17	17	17	17	17	17	17	17	17	17	17	17	17	17	16	16	16	16	16	16	16	16	17	17	17	17	14	14	14	14	12	12	12	12	12	12	12	12	15	15	15	15	14	14	14	14	14	14	14	14	15	15	15	15	17	17	17	17	16	16	16	16	12	12	12	12	12	12	12	12	12	12	12	12	12	12	12	12	12	12	12	12	12	12	12	12	12	12	12	12	12	12	12	12	12	12	12	12	14	14	14	14	15	15	15	15	15	15	15	15	14	14	14	14	14	14	14	14	14	14	14	14	17	17	17	17	17	17	17	17	17	17	17	17	16	16	16	16	16	16	16	16	16	16	16	16	20	20	20	20	20	20	20	20	22	22	22	22	21	21	21	21	19	19	19	19	16	16	16	16	16	16	16	16	16	16	16	16	20	20	20	20	21	21	21	21	22	22	22	22	21	21	21	21	30	30	30	30	33	33	33	33	31	31	31	31	27	27	27	27	21	21	21	21	19	19	19	19	16	16	16	16	20	20	20	20	18	18	18	18	14	14	14	14	17	17	17	17	17	17	17	17
10	10	10	10	11	11	11	11	13	13	13	13	13	13	13	13	12	12	12	12	12	12	12	12	12	12	12	12	12	12	12	12	12	12	12	12	12	12	12	12	12	12	12	12	12	12	12	12	13	13	13	13	13	13	13	13	13	13	13	13	13	13	13	13	13	13	13	13	11	11	11	11	13	13	13	13	13	13	13	13	13	13	13	13	12	12	12	12	12	12	12	12	12	12	12	12	12	12	12	12	15	15	15	15	14	14	14	14	15	15	15	15	12	12	12	12	12	12	12	12	12	12	12	12	12	12	12	12	12	12	12	12	12	12	12	12	12	12	12	12	12	12	12	12	12	12	12	12	12	12	12	12	14	14	14	14	17	17	17	17	17	17	17	17	17	17	17	17	17	17	17	17	17	17	17	17	16	16	16	16	17	17	17	17	17	17	17	17	14	14	14	14	12	12	12	12	12	12	12	12	12	12	12	12	12	12	12	12	12	12	12	12	17	17	17	17	12	12	12	12	12	12	12	12	12	12	12	12	12	12	12	12	12	12	12	12	12	12	12	12	12	12	12	12	12	12	12	12	12	12	12	12	12	12	12	12	15	15	15	15	15	15	15	15	12	12	12	12	14	14	14	14	14	14	14	14	14	14	14	14	17	17	17	17	17	17	17	17	17	17	17	17	16	16	16	16	16	16	16	16	16	16	16	16	19	19	19	19	20	20	20	20	20	20	20	20	18	18	18	18	16	16	16	16	20	20	20	20	21	21	21	21	22	22	22	22	20	20	20	20	18	18	18	18	20	20	20	20	20	20	20	20	29	29	29	29	31	31	31	31	26	26	26	26	21	21	21	21	16	16	16	16	16	16	16	16	17	17	17	17	19	19	19	19	17	17	17	17	15	15	15	15	16	16	16	16	20	20	20	20
10	10	10	10	11	11	11	11	13	13	13	13	13	13	13	13	12	12	12	12	12	12	12	12	12	12	12	12	12	12	12	12	12	12	12	12	12	12	12	12	12	12	12	12	12	12	12	12	13	13	13	13	13	13	13	13	13	13	13	13	13	13	13	13	13	13	13	13	11	11	11	11	13	13	13	13	13	13	13	13	13	13	13	13	12	12	12	12	12	12	12	12	12	12	12	12	12	12	12	12	15	15	15	15	14	14	14	14	15	15	15	15	12	12	12	12	12	12	12	12	12	12	12	12	12	12	12	12	12	12	12	12	12	12	12	12	12	12	12	12	12	12	12	12	12	12	12	12	12	12	12	12	14	14	14	14	17	17	17	17	17	17	17	17	17	17	17	17	17	17	17	17	17	17	17	17	16	16	16	16	17	17	17	17	17	17	17	17	14	14	14	14	12	12	12	12	12	12	12	12	12	12	12	12	12	12	12	12	12	12	12	12	17	17	17	17	12	12	12	12	12	12	12	12	12	12	12	12	12	12	12	12	12	12	12	12	12	12	12	12	12	12	12	12	12	12	12	12	12	12	12	12	12	12	12	12	15	15	15	15	15	15	15	15	12	12	12	12	14	14	14	14	14	14	14	14	14	14	14	14	17	17	17	17	17	17	17	17	17	17	17	17	16	16	16	16	16	16	16	16	16	16	16	16	19	19	19	19	20	20	20	20	20	20	20	20	18	18	18	18	16	16	16	16	20	20	20	20	21	21	21	21	22	22	22	22	20	20	20	20	18	18	18	18	20	20	20	20	20	20	20	20	29	29	29	29	31	31	31	31	26	26	26	26	21	21	21	21	16	16	16	16	16	16	16	16	17	17	17	17	19	19	19	19	17	17	17	17	15	15	15	15	16	16	16	16	20	20	20	20
10	10	10	10	11	11	11	11	13	13	13	13	13	13	13	13	12	12	12	12	12	12	12	12	12	12	12	12	12	12	12	12	12	12	12	12	12	12	12	12	12	12	12	12	12	12	12	12	13	13	13	13	13	13	13	13	13	13	13	13	13	13	13	13	13	13	13	13	11	11	11	11	13	13	13	13	13	13	13	13	13	13	13	13	12	12	12	12	12	12	12	12	12	12	12	12	12	12	12	12	15	15	15	15	14	14	14	14	15	15	15	15	12	12	12	12	12	12	12	12	12	12	12	12	12	12	12	12	12	12	12	12	12	12	12	12	12	12	12	12	12	12	12	12	12	12	12	12	12	12	12	12	14	14	14	14	17	17	17	17	17	17	17	17	17	17	17	17	17	17	17	17	17	17	17	17	16	16	16	16	17	17	17	17	17	17	17	17	14	14	14	14	12	12	12	12	12	12	12	12	12	12	12	12	12	12	12	12	12	12	12	12	17	17	17	17	12	12	12	12	12	12	12	12	12	12	12	12	12	12	12	12	12	12	12	12	12	12	12	12	12	12	12	12	12	12	12	12	12	12	12	12	12	12	12	12	15	15	15	15	15	15	15	15	12	12	12	12	14	14	14	14	14	14	14	14	14	14	14	14	17	17	17	17	17	17	17	17	17	17	17	17	16	16	16	16	16	16	16	16	16	16	16	16	19	19	19	19	20	20	20	20	20	20	20	20	18	18	18	18	16	16	16	16	20	20	20	20	21	21	21	21	22	22	22	22	20	20	20	20	18	18	18	18	20	20	20	20	20	20	20	20	29	29	29	29	31	31	31	31	26	26	26	26	21	21	21	21	16	16	16	16	16	16	16	16	17	17	17	17	19	19	19	19	17	17	17	17	15	15	15	15	16	16	16	16	20	20	20	20
10	10	10	10	11	11	11	11	13	13	13	13	13	13	13	13	12	12	12	12	12	12	12	12	12	12	12	12	12	12	12	12	12	12	12	12	12	12	12	12	12	12	12	12	12	12	12	12	13	13	13	13	13	13	13	13	13	13	13	13	13	13	13	13	13	13	13	13	11	11	11	11	13	13	13	13	13	13	13	13	13	13	13	13	12	12	12	12	12	12	12	12	12	12	12	12	12	12	12	12	15	15	15	15	14	14	14	14	15	15	15	15	12	12	12	12	12	12	12	12	12	12	12	12	12	12	12	12	12	12	12	12	12	12	12	12	12	12	12	12	12	12	12	12	12	12	12	12	12	12	12	12	14	14	14	14	17	17	17	17	17	17	17	17	17	17	17	17	17	17	17	17	17	17	17	17	16	16	16	16	17	17	17	17	17	17	17	17	14	14	14	14	12	12	12	12	12	12	12	12	12	12	12	12	12	12	12	12	12	12	12	12	17	17	17	17	12	12	12	12	12	12	12	12	12	12	12	12	12	12	12	12	12	12	12	12	12	12	12	12	12	12	12	12	12	12	12	12	12	12	12	12	12	12	12	12	15	15	15	15	15	15	15	15	12	12	12	12	14	14	14	14	14	14	14	14	14	14	14	14	17	17	17	17	17	17	17	17	17	17	17	17	16	16	16	16	16	16	16	16	16	16	16	16	19	19	19	19	20	20	20	20	20	20	20	20	18	18	18	18	16	16	16	16	20	20	20	20	21	21	21	21	22	22	22	22	20	20	20	20	18	18	18	18	20	20	20	20	20	20	20	20	29	29	29	29	31	31	31	31	26	26	26	26	21	21	21	21	16	16	16	16	16	16	16	16	17	17	17	17	19	19	19	19	17	17	17	17	15	15	15	15	16	16	16	16	20	20	20	20
10	10	10	10	10	10	10	10	10	10	10	10	11	11	11	11	11	11	11	11	13	13	13	13	12	12	12	12	12	12	12	12	13	13	13	13	13	13	13	13	13	13	13	13	13	13	13	13	11	11	11	11	11	11	11	11	11	11	11	11	11	11	11	11	11	11	11	11	10	10	10	10	10	10	10	10	10	10	10	10	11	11	11	11	11	11	11	11	11	11	11	11	11	11	11	11	11	11	11	11	13	13	13	13	13	13	13	13	13	13	13	13	13	13	13	13	12	12	12	12	12	12	12	12	12	12	12	12	12	12	12	12	12	12	12	12	12	12	12	12	12	12	12	12	12	12	12	12	12	12	12	12	14	14	14	14	17	17	17	17	17	17	17	17	17	17	17	17	17	17	17	17	16	16	16	16	16	16	16	16	18	18	18	18	16	16	16	16	15	15	15	15	15	15	15	15	12	12	12	12	12	12	12	12	12	12	12	12	12	12	12	12	12	12	12	12	12	12	12	12	12	12	12	12	12	12	12	12	12	12	12	12	12	12	12	12	12	12	12	12	12	12	12	12	12	12	12	12	12	12	12	12	12	12	12	12	12	12	12	12	12	12	12	12	12	12	12	12	12	12	12	12	15	15	15	15	15	15	15	15	14	14	14	14	17	17	17	17	17	17	17	17	17	17	17	17	16	16	16	16	17	17	17	17	19	19	19	19	18	18	18	18	19	19	19	19	16	16	16	16	17	17	17	17	22	22	22	22	20	20	20	20	18	18	18	18	16	16	16	16	17	17	17	17	17	17	17	17	18	18	18	18	20	20	20	20	22	22	22	22	16	16	16	16	16	16	16	16	16	16	16	16	17	17	17	17	15	15	15	15	12	12	12	12	17	17	17	17	15	15	15	15	16	16	16	16	24	24	24	24
10	10	10	10	10	10	10	10	10	10	10	10	11	11	11	11	11	11	11	11	13	13	13	13	12	12	12	12	12	12	12	12	13	13	13	13	13	13	13	13	13	13	13	13	13	13	13	13	11	11	11	11	11	11	11	11	11	11	11	11	11	11	11	11	11	11	11	11	10	10	10	10	10	10	10	10	10	10	10	10	11	11	11	11	11	11	11	11	11	11	11	11	11	11	11	11	11	11	11	11	13	13	13	13	13	13	13	13	13	13	13	13	13	13	13	13	12	12	12	12	12	12	12	12	12	12	12	12	12	12	12	12	12	12	12	12	12	12	12	12	12	12	12	12	12	12	12	12	12	12	12	12	14	14	14	14	17	17	17	17	17	17	17	17	17	17	17	17	17	17	17	17	16	16	16	16	16	16	16	16	18	18	18	18	16	16	16	16	15	15	15	15	15	15	15	15	12	12	12	12	12	12	12	12	12	12	12	12	12	12	12	12	12	12	12	12	12	12	12	12	12	12	12	12	12	12	12	12	12	12	12	12	12	12	12	12	12	12	12	12	12	12	12	12	12	12	12	12	12	12	12	12	12	12	12	12	12	12	12	12	12	12	12	12	12	12	12	12	12	12	12	12	15	15	15	15	15	15	15	15	14	14	14	14	17	17	17	17	17	17	17	17	17	17	17	17	16	16	16	16	17	17	17	17	19	19	19	19	18	18	18	18	19	19	19	19	16	16	16	16	17	17	17	17	22	22	22	22	20	20	20	20	18	18	18	18	16	16	16	16	17	17	17	17	17	17	17	17	18	18	18	18	20	20	20	20	22	22	22	22	16	16	16	16	16	16	16	16	16	16	16	16	17	17	17	17	15	15	15	15	12	12	12	12	17	17	17	17	15	15	15	15	16	16	16	16	24	24	24	24
10	10	10	10	10	10	10	10	10	10	10	10	11	11	11	11	11	11	11	11	13	13	13	13	12	12	12	12	12	12	12	12	13	13	13	13	13	13	13	13	13	13	13	13	13	13	13	13	11	11	11	11	11	11	11	11	11	11	11	11	11	11	11	11	11	11	11	11	10	10	10	10	10	10	10	10	10	10	10	10	11	11	11	11	11	11	11	11	11	11	11	11	11	11	11	11	11	11	11	11	13	13	13	13	13	13	13	13	13	13	13	13	13	13	13	13	12	12	12	12	12	12	12	12	12	12	12	12	12	12	12	12	12	12	12	12	12	12	12	12	12	12	12	12	12	12	12	12	12	12	12	12	14	14	14	14	17	17	17	17	17	17	17	17	17	17	17	17	17	17	17	17	16	16	16	16	16	16	16	16	18	18	18	18	16	16	16	16	15	15	15	15	15	15	15	15	12	12	12	12	12	12	12	12	12	12	12	12	12	12	12	12	12	12	12	12	12	12	12	12	12	12	12	12	12	12	12	12	12	12	12	12	12	12	12	12	12	12	12	12	12	12	12	12	12	12	12	12	12	12	12	12	12	12	12	12	12	12	12	12	12	12	12	12	12	12	12	12	12	12	12	12	15	15	15	15	15	15	15	15	14	14	14	14	17	17	17	17	17	17	17	17	17	17	17	17	16	16	16	16	17	17	17	17	19	19	19	19	18	18	18	18	19	19	19	19	16	16	16	16	17	17	17	17	22	22	22	22	20	20	20	20	18	18	18	18	16	16	16	16	17	17	17	17	17	17	17	17	18	18	18	18	20	20	20	20	22	22	22	22	16	16	16	16	16	16	16	16	16	16	16	16	17	17	17	17	15	15	15	15	12	12	12	12	17	17	17	17	15	15	15	15	16	16	16	16	24	24	24	24
10	10	10	10	10	10	10	10	10	10	10	10	11	11	11	11	11	11	11	11	13	13	13	13	12	12	12	12	12	12	12	12	13	13	13	13	13	13	13	13	13	13	13	13	13	13	13	13	11	11	11	11	11	11	11	11	11	11	11	11	11	11	11	11	11	11	11	11	10	10	10	10	10	10	10	10	10	10	10	10	11	11	11	11	11	11	11	11	11	11	11	11	11	11	11	11	11	11	11	11	13	13	13	13	13	13	13	13	13	13	13	13	13	13	13	13	12	12	12	12	12	12	12	12	12	12	12	12	12	12	12	12	12	12	12	12	12	12	12	12	12	12	12	12	12	12	12	12	12	12	12	12	14	14	14	14	17	17	17	17	17	17	17	17	17	17	17	17	17	17	17	17	16	16	16	16	16	16	16	16	18	18	18	18	16	16	16	16	15	15	15	15	15	15	15	15	12	12	12	12	12	12	12	12	12	12	12	12	12	12	12	12	12	12	12	12	12	12	12	12	12	12	12	12	12	12	12	12	12	12	12	12	12	12	12	12	12	12	12	12	12	12	12	12	12	12	12	12	12	12	12	12	12	12	12	12	12	12	12	12	12	12	12	12	12	12	12	12	12	12	12	12	15	15	15	15	15	15	15	15	14	14	14	14	17	17	17	17	17	17	17	17	17	17	17	17	16	16	16	16	17	17	17	17	19	19	19	19	18	18	18	18	19	19	19	19	16	16	16	16	17	17	17	17	22	22	22	22	20	20	20	20	18	18	18	18	16	16	16	16	17	17	17	17	17	17	17	17	18	18	18	18	20	20	20	20	22	22	22	22	16	16	16	16	16	16	16	16	16	16	16	16	17	17	17	17	15	15	15	15	12	12	12	12	17	17	17	17	15	15	15	15	16	16	16	16	24	24	24	24
10	10	10	10	10	10	10	10	10	10	10	10	10	10	10	10	10	10	10	10	11	11	11	11	12	12	12	12	12	12	12	12	11	11	11	11	11	11	11	11	11	11	11	11	11	11	11	11	11	11	11	11	11	11	11	11	11	11	11	11	11	11	11	11	11	11	11	11	10	10	10	10	10	10	10	10	10	10	10	10	10	10	10	10	11	11	11	11	10	10	10	10	10	10	10	10	10	10	10	10	11	11	11	11	11	11	11	11	13	13	13	13	13	13	13	13	13	13	13	13	12	12	12	12	12	12	12	12	12	12	12	12	12	12	12	12	12	12	12	12	12	12	12	12	12	12	12	12	12	12	12	12	14	14	14	14	14	14	14	14	17	17	17	17	17	17	17	17	17	17	17	17	16	16	16	16	19	19	19	19	17	17	17	17	16	16	16	16	15	15	15	15	15	15	15	15	12	12	12	12	12	12	12	12	12	12	12	12	12	12	12	12	12	12	12	12	12	12	12	12	12	12	12	12	12	12	12	12	12	12	12	12	12	12	12	12	12	12	12	12	12	12	12	12	12	12	12	12	12	12	12	12	12	12	12	12	12	12	12	12	12	12	12	12	12	12	12	12	12	12	12	12	12	12	12	12	12	12	12	12	12	12	12	12	14	14	14	14	17	17	17	17	17	17	17	17	17	17	17	17	17	17	17	17	16	16	16	16	19	19	19	19	16	16	16	16	15	15	15	15	18	18	18	18	19	19	19	19	19	19	19	19	16	16	16	16	17	17	17	17	15	15	15	15	16	16	16	16	18	18	18	18	18	18	18	18	20	20	20	20	16	16	16	16	16	16	16	16	17	17	17	17	15	15	15	15	13	13	13	13	10	10	10	10	12	12	12	12	18	18	18	18	25	25	25	25	19	19	19	19
10	10	10	10	10	10	10	10	10	10	10	10	10	10	10	10	10	10	10	10	11	11	11	11	12	12	12	12	12	12	12	12	11	11	11	11	11	11	11	11	11	11	11	11	11	11	11	11	11	11	11	11	11	11	11	11	11	11	11	11	11	11	11	11	11	11	11	11	10	10	10	10	10	10	10	10	10	10	10	10	10	10	10	10	11	11	11	11	10	10	10	10	10	10	10	10	10	10	10	10	11	11	11	11	11	11	11	11	13	13	13	13	13	13	13	13	13	13	13	13	12	12	12	12	12	12	12	12	12	12	12	12	12	12	12	12	12	12	12	12	12	12	12	12	12	12	12	12	12	12	12	12	14	14	14	14	14	14	14	14	17	17	17	17	17	17	17	17	17	17	17	17	16	16	16	16	19	19	19	19	17	17	17	17	16	16	16	16	15	15	15	15	15	15	15	15	12	12	12	12	12	12	12	12	12	12	12	12	12	12	12	12	12	12	12	12	12	12	12	12	12	12	12	12	12	12	12	12	12	12	12	12	12	12	12	12	12	12	12	12	12	12	12	12	12	12	12	12	12	12	12	12	12	12	12	12	12	12	12	12	12	12	12	12	12	12	12	12	12	12	12	12	12	12	12	12	12	12	12	12	12	12	12	12	14	14	14	14	17	17	17	17	17	17	17	17	17	17	17	17	17	17	17	17	16	16	16	16	19	19	19	19	16	16	16	16	15	15	15	15	18	18	18	18	19	19	19	19	19	19	19	19	16	16	16	16	17	17	17	17	15	15	15	15	16	16	16	16	18	18	18	18	18	18	18	18	20	20	20	20	16	16	16	16	16	16	16	16	17	17	17	17	15	15	15	15	13	13	13	13	10	10	10	10	12	12	12	12	18	18	18	18	25	25	25	25	19	19	19	19
10	10	10	10	10	10	10	10	10	10	10	10	10	10	10	10	10	10	10	10	11	11	11	11	12	12	12	12	12	12	12	12	11	11	11	11	11	11	11	11	11	11	11	11	11	11	11	11	11	11	11	11	11	11	11	11	11	11	11	11	11	11	11	11	11	11	11	11	10	10	10	10	10	10	10	10	10	10	10	10	10	10	10	10	11	11	11	11	10	10	10	10	10	10	10	10	10	10	10	10	11	11	11	11	11	11	11	11	13	13	13	13	13	13	13	13	13	13	13	13	12	12	12	12	12	12	12	12	12	12	12	12	12	12	12	12	12	12	12	12	12	12	12	12	12	12	12	12	12	12	12	12	14	14	14	14	14	14	14	14	17	17	17	17	17	17	17	17	17	17	17	17	16	16	16	16	19	19	19	19	17	17	17	17	16	16	16	16	15	15	15	15	15	15	15	15	12	12	12	12	12	12	12	12	12	12	12	12	12	12	12	12	12	12	12	12	12	12	12	12	12	12	12	12	12	12	12	12	12	12	12	12	12	12	12	12	12	12	12	12	12	12	12	12	12	12	12	12	12	12	12	12	12	12	12	12	12	12	12	12	12	12	12	12	12	12	12	12	12	12	12	12	12	12	12	12	12	12	12	12	12	12	12	12	14	14	14	14	17	17	17	17	17	17	17	17	17	17	17	17	17	17	17	17	16	16	16	16	19	19	19	19	16	16	16	16	15	15	15	15	18	18	18	18	19	19	19	19	19	19	19	19	16	16	16	16	17	17	17	17	15	15	15	15	16	16	16	16	18	18	18	18	18	18	18	18	20	20	20	20	16	16	16	16	16	16	16	16	17	17	17	17	15	15	15	15	13	13	13	13	10	10	10	10	12	12	12	12	18	18	18	18	25	25	25	25	19	19	19	19
10	10	10	10	10	10	10	10	10	10	10	10	10	10	10	10	10	10	10	10	11	11	11	11	12	12	12	12	12	12	12	12	11	11	11	11	11	11	11	11	11	11	11	11	11	11	11	11	11	11	11	11	11	11	11	11	11	11	11	11	11	11	11	11	11	11	11	11	10	10	10	10	10	10	10	10	10	10	10	10	10	10	10	10	11	11	11	11	10	10	10	10	10	10	10	10	10	10	10	10	11	11	11	11	11	11	11	11	13	13	13	13	13	13	13	13	13	13	13	13	12	12	12	12	12	12	12	12	12	12	12	12	12	12	12	12	12	12	12	12	12	12	12	12	12	12	12	12	12	12	12	12	14	14	14	14	14	14	14	14	17	17	17	17	17	17	17	17	17	17	17	17	16	16	16	16	19	19	19	19	17	17	17	17	16	16	16	16	15	15	15	15	15	15	15	15	12	12	12	12	12	12	12	12	12	12	12	12	12	12	12	12	12	12	12	12	12	12	12	12	12	12	12	12	12	12	12	12	12	12	12	12	12	12	12	12	12	12	12	12	12	12	12	12	12	12	12	12	12	12	12	12	12	12	12	12	12	12	12	12	12	12	12	12	12	12	12	12	12	12	12	12	12	12	12	12	12	12	12	12	12	12	12	12	14	14	14	14	17	17	17	17	17	17	17	17	17	17	17	17	17	17	17	17	16	16	16	16	19	19	19	19	16	16	16	16	15	15	15	15	18	18	18	18	19	19	19	19	19	19	19	19	16	16	16	16	17	17	17	17	15	15	15	15	16	16	16	16	18	18	18	18	18	18	18	18	20	20	20	20	16	16	16	16	16	16	16	16	17	17	17	17	15	15	15	15	13	13	13	13	10	10	10	10	12	12	12	12	18	18	18	18	25	25	25	25	19	19	19	19
10	10	10	10	10	10	10	10	10	10	10	10	10	10	10	10	10	10	10	10	10	10	10	10	13	13	13	13	12	12	12	12	11	11	11	11	11	11	11	11	10	10	10	10	10	10	10	10	10	10	10	10	10	10	10	10	10	10	10	10	10	10	10	10	11	11	11	11	11	11	11	11	13	13	13	13	12	12	12	12	12	12	12	12	12	12	12	12	11	11	11	11	11	11	11	11	10	10	10	10	10	10	10	10	11	11	11	11	11	11	11	11	13	13	13	13	13	13	13	13	13	13	13	13	13	13	13	13	13	13	13	13	12	12	12	12	12	12	12	12	12	12	12	12	12	12	12	12	12	12	12	12	14	14	14	14	14	14	14	14	17	17	17	17	17	17	17	17	17	17	17	17	16	16	16	16	16	16	16	16	17	17	17	17	17	17	17	17	14	14	14	14	15	15	15	15	12	12	12	12	12	12	12	12	12	12	12	12	12	12	12	12	12	12	12	12	12	12	12	12	12	12	12	12	12	12	12	12	12	12	12	12	12	12	12	12	12	12	12	12	12	12	12	12	12	12	12	12	12	12	12	12	12	12	12	12	12	12	12	12	13	13	13	13	12	12	12	12	12	12	12	12	12	12	12	12	12	12	12	12	12	12	12	12	12	12	12	12	12	12	12	12	15	15	15	15	15	15	15	15	16	16	16	16	16	16	16	16	20	20	20	20	17	17	17	17	14	14	14	14	18	18	18	18	16	16	16	16	17	17	17	17	17	17	17	17	17	17	17	17	14	14	14	14	14	14	14	14	17	17	17	17	17	17	17	17	17	17	17	17	12	12	12	12	15	15	15	15	12	12	12	12	11	11	11	11	10	10	10	10	9	9	9	9	13	13	13	13	12	12	12	12	20	20	20	20	18	18	18	18
10	10	10	10	10	10	10	10	10	10	10	10	10	10	10	10	10	10	10	10	10	10	10	10	13	13	13	13	12	12	12	12	11	11	11	11	11	11	11	11	10	10	10	10	10	10	10	10	10	10	10	10	10	10	10	10	10	10	10	10	10	10	10	10	11	11	11	11	11	11	11	11	13	13	13	13	12	12	12	12	12	12	12	12	12	12	12	12	11	11	11	11	11	11	11	11	10	10	10	10	10	10	10	10	11	11	11	11	11	11	11	11	13	13	13	13	13	13	13	13	13	13	13	13	13	13	13	13	13	13	13	13	12	12	12	12	12	12	12	12	12	12	12	12	12	12	12	12	12	12	12	12	14	14	14	14	14	14	14	14	17	17	17	17	17	17	17	17	17	17	17	17	16	16	16	16	16	16	16	16	17	17	17	17	17	17	17	17	14	14	14	14	15	15	15	15	12	12	12	12	12	12	12	12	12	12	12	12	12	12	12	12	12	12	12	12	12	12	12	12	12	12	12	12	12	12	12	12	12	12	12	12	12	12	12	12	12	12	12	12	12	12	12	12	12	12	12	12	12	12	12	12	12	12	12	12	12	12	12	12	13	13	13	13	12	12	12	12	12	12	12	12	12	12	12	12	12	12	12	12	12	12	12	12	12	12	12	12	12	12	12	12	15	15	15	15	15	15	15	15	16	16	16	16	16	16	16	16	20	20	20	20	17	17	17	17	14	14	14	14	18	18	18	18	16	16	16	16	17	17	17	17	17	17	17	17	17	17	17	17	14	14	14	14	14	14	14	14	17	17	17	17	17	17	17	17	17	17	17	17	12	12	12	12	15	15	15	15	12	12	12	12	11	11	11	11	10	10	10	10	9	9	9	9	13	13	13	13	12	12	12	12	20	20	20	20	18	18	18	18
10	10	10	10	10	10	10	10	10	10	10	10	10	10	10	10	10	10	10	10	10	10	10	10	13	13	13	13	12	12	12	12	11	11	11	11	11	11	11	11	10	10	10	10	10	10	10	10	10	10	10	10	10	10	10	10	10	10	10	10	10	10	10	10	11	11	11	11	11	11	11	11	13	13	13	13	12	12	12	12	12	12	12	12	12	12	12	12	11	11	11	11	11	11	11	11	10	10	10	10	10	10	10	10	11	11	11	11	11	11	11	11	13	13	13	13	13	13	13	13	13	13	13	13	13	13	13	13	13	13	13	13	12	12	12	12	12	12	12	12	12	12	12	12	12	12	12	12	12	12	12	12	14	14	14	14	14	14	14	14	17	17	17	17	17	17	17	17	17	17	17	17	16	16	16	16	16	16	16	16	17	17	17	17	17	17	17	17	14	14	14	14	15	15	15	15	12	12	12	12	12	12	12	12	12	12	12	12	12	12	12	12	12	12	12	12	12	12	12	12	12	12	12	12	12	12	12	12	12	12	12	12	12	12	12	12	12	12	12	12	12	12	12	12	12	12	12	12	12	12	12	12	12	12	12	12	12	12	12	12	13	13	13	13	12	12	12	12	12	12	12	12	12	12	12	12	12	12	12	12	12	12	12	12	12	12	12	12	12	12	12	12	15	15	15	15	15	15	15	15	16	16	16	16	16	16	16	16	20	20	20	20	17	17	17	17	14	14	14	14	18	18	18	18	16	16	16	16	17	17	17	17	17	17	17	17	17	17	17	17	14	14	14	14	14	14	14	14	17	17	17	17	17	17	17	17	17	17	17	17	12	12	12	12	15	15	15	15	12	12	12	12	11	11	11	11	10	10	10	10	9	9	9	9	13	13	13	13	12	12	12	12	20	20	20	20	18	18	18	18
10	10	10	10	10	10	10	10	10	10	10	10	10	10	10	10	10	10	10	10	10	10	10	10	13	13	13	13	12	12	12	12	11	11	11	11	11	11	11	11	10	10	10	10	10	10	10	10	10	10	10	10	10	10	10	10	10	10	10	10	10	10	10	10	11	11	11	11	11	11	11	11	13	13	13	13	12	12	12	12	12	12	12	12	12	12	12	12	11	11	11	11	11	11	11	11	10	10	10	10	10	10	10	10	11	11	11	11	11	11	11	11	13	13	13	13	13	13	13	13	13	13	13	13	13	13	13	13	13	13	13	13	12	12	12	12	12	12	12	12	12	12	12	12	12	12	12	12	12	12	12	12	14	14	14	14	14	14	14	14	17	17	17	17	17	17	17	17	17	17	17	17	16	16	16	16	16	16	16	16	17	17	17	17	17	17	17	17	14	14	14	14	15	15	15	15	12	12	12	12	12	12	12	12	12	12	12	12	12	12	12	12	12	12	12	12	12	12	12	12	12	12	12	12	12	12	12	12	12	12	12	12	12	12	12	12	12	12	12	12	12	12	12	12	12	12	12	12	12	12	12	12	12	12	12	12	12	12	12	12	13	13	13	13	12	12	12	12	12	12	12	12	12	12	12	12	12	12	12	12	12	12	12	12	12	12	12	12	12	12	12	12	15	15	15	15	15	15	15	15	16	16	16	16	16	16	16	16	20	20	20	20	17	17	17	17	14	14	14	14	18	18	18	18	16	16	16	16	17	17	17	17	17	17	17	17	17	17	17	17	14	14	14	14	14	14	14	14	17	17	17	17	17	17	17	17	17	17	17	17	12	12	12	12	15	15	15	15	12	12	12	12	11	11	11	11	10	10	10	10	9	9	9	9	13	13	13	13	12	12	12	12	20	20	20	20	18	18	18	18
10	10	10	10	10	10	10	10	10	10	10	10	10	10	10	10	10	10	10	10	10	10	10	10	11	11	11	11	10	10	10	10	10	10	10	10	10	10	10	10	10	10	10	10	10	10	10	10	10	10	10	10	10	10	10	10	10	10	10	10	11	11	11	11	11	11	11	11	13	13	13	13	12	12	12	12	12	12	12	12	12	12	12	12	12	12	12	12	12	12	12	12	12	12	12	12	11	11	11	11	10	10	10	10	11	11	11	11	11	11	11	11	11	11	11	11	13	13	13	13	13	13	13	13	13	13	13	13	13	13	13	13	13	13	13	13	12	12	12	12	12	12	12	12	12	12	12	12	12	12	12	12	12	12	12	12	15	15	15	15	14	14	14	14	14	14	14	14	17	17	17	17	17	17	17	17	17	17	17	17	14	14	14	14	15	15	15	15	12	12	12	12	12	12	12	12	12	12	12	12	12	12	12	12	12	12	12	12	12	12	12	12	12	12	12	12	12	12	12	12	12	12	12	12	12	12	12	12	12	12	12	12	12	12	12	12	12	12	12	12	12	12	12	12	12	12	12	12	12	12	12	12	12	12	12	12	12	12	12	12	13	13	13	13	12	12	12	12	12	12	12	12	12	12	12	12	12	12	12	12	12	12	12	12	12	12	12	12	12	12	12	12	12	12	12	12	12	12	12	12	12	12	12	12	17	17	17	17	16	16	16	16	12	12	12	12	13	13	13	13	12	12	12	12	12	12	12	12	12	12	12	12	12	12	12	12	13	13	13	13	13	13	13	13	13	13	13	13	13	13	13	13	13	13	13	13	13	13	13	13	13	13	13	13	11	11	11	11	9	9	9	9	10	10	10	10	11	11	11	11	10	10	10	10	13	13	13	13	12	12	12	12	15	15	15	15	21	21	21	21
10	10	10	10	10	10	10	10	10	10	10	10	10	10	10	10	10	10	10	10	10	10	10	10	11	11	11	11	10	10	10	10	10	10	10	10	10	10	10	10	10	10	10	10	10	10	10	10	10	10	10	10	10	10	10	10	10	10	10	10	11	11	11	11	11	11	11	11	13	13	13	13	12	12	12	12	12	12	12	12	12	12	12	12	12	12	12	12	12	12	12	12	12	12	12	12	11	11	11	11	10	10	10	10	11	11	11	11	11	11	11	11	11	11	11	11	13	13	13	13	13	13	13	13	13	13	13	13	13	13	13	13	13	13	13	13	12	12	12	12	12	12	12	12	12	12	12	12	12	12	12	12	12	12	12	12	15	15	15	15	14	14	14	14	14	14	14	14	17	17	17	17	17	17	17	17	17	17	17	17	14	14	14	14	15	15	15	15	12	12	12	12	12	12	12	12	12	12	12	12	12	12	12	12	12	12	12	12	12	12	12	12	12	12	12	12	12	12	12	12	12	12	12	12	12	12	12	12	12	12	12	12	12	12	12	12	12	12	12	12	12	12	12	12	12	12	12	12	12	12	12	12	12	12	12	12	12	12	12	12	13	13	13	13	12	12	12	12	12	12	12	12	12	12	12	12	12	12	12	12	12	12	12	12	12	12	12	12	12	12	12	12	12	12	12	12	12	12	12	12	12	12	12	12	17	17	17	17	16	16	16	16	12	12	12	12	13	13	13	13	12	12	12	12	12	12	12	12	12	12	12	12	12	12	12	12	13	13	13	13	13	13	13	13	13	13	13	13	13	13	13	13	13	13	13	13	13	13	13	13	13	13	13	13	11	11	11	11	9	9	9	9	10	10	10	10	11	11	11	11	10	10	10	10	13	13	13	13	12	12	12	12	15	15	15	15	21	21	21	21
10	10	10	10	10	10	10	10	10	10	10	10	10	10	10	10	10	10	10	10	10	10	10	10	11	11	11	11	10	10	10	10	10	10	10	10	10	10	10	10	10	10	10	10	10	10	10	10	10	10	10	10	10	10	10	10	10	10	10	10	11	11	11	11	11	11	11	11	13	13	13	13	12	12	12	12	12	12	12	12	12	12	12	12	12	12	12	12	12	12	12	12	12	12	12	12	11	11	11	11	10	10	10	10	11	11	11	11	11	11	11	11	11	11	11	11	13	13	13	13	13	13	13	13	13	13	13	13	13	13	13	13	13	13	13	13	12	12	12	12	12	12	12	12	12	12	12	12	12	12	12	12	12	12	12	12	15	15	15	15	14	14	14	14	14	14	14	14	17	17	17	17	17	17	17	17	17	17	17	17	14	14	14	14	15	15	15	15	12	12	12	12	12	12	12	12	12	12	12	12	12	12	12	12	12	12	12	12	12	12	12	12	12	12	12	12	12	12	12	12	12	12	12	12	12	12	12	12	12	12	12	12	12	12	12	12	12	12	12	12	12	12	12	12	12	12	12	12	12	12	12	12	12	12	12	12	12	12	12	12	13	13	13	13	12	12	12	12	12	12	12	12	12	12	12	12	12	12	12	12	12	12	12	12	12	12	12	12	12	12	12	12	12	12	12	12	12	12	12	12	12	12	12	12	17	17	17	17	16	16	16	16	12	12	12	12	13	13	13	13	12	12	12	12	12	12	12	12	12	12	12	12	12	12	12	12	13	13	13	13	13	13	13	13	13	13	13	13	13	13	13	13	13	13	13	13	13	13	13	13	13	13	13	13	11	11	11	11	9	9	9	9	10	10	10	10	11	11	11	11	10	10	10	10	13	13	13	13	12	12	12	12	15	15	15	15	21	21	21	21
10	10	10	10	10	10	10	10	10	10	10	10	10	10	10	10	10	10	10	10	10	10	10	10	11	11	11	11	10	10	10	10	10	10	10	10	10	10	10	10	10	10	10	10	10	10	10	10	10	10	10	10	10	10	10	10	10	10	10	10	11	11	11	11	11	11	11	11	13	13	13	13	12	12	12	12	12	12	12	12	12	12	12	12	12	12	12	12	12	12	12	12	12	12	12	12	11	11	11	11	10	10	10	10	11	11	11	11	11	11	11	11	11	11	11	11	13	13	13	13	13	13	13	13	13	13	13	13	13	13	13	13	13	13	13	13	12	12	12	12	12	12	12	12	12	12	12	12	12	12	12	12	12	12	12	12	15	15	15	15	14	14	14	14	14	14	14	14	17	17	17	17	17	17	17	17	17	17	17	17	14	14	14	14	15	15	15	15	12	12	12	12	12	12	12	12	12	12	12	12	12	12	12	12	12	12	12	12	12	12	12	12	12	12	12	12	12	12	12	12	12	12	12	12	12	12	12	12	12	12	12	12	12	12	12	12	12	12	12	12	12	12	12	12	12	12	12	12	12	12	12	12	12	12	12	12	12	12	12	12	13	13	13	13	12	12	12	12	12	12	12	12	12	12	12	12	12	12	12	12	12	12	12	12	12	12	12	12	12	12	12	12	12	12	12	12	12	12	12	12	12	12	12	12	17	17	17	17	16	16	16	16	12	12	12	12	13	13	13	13	12	12	12	12	12	12	12	12	12	12	12	12	12	12	12	12	13	13	13	13	13	13	13	13	13	13	13	13	13	13	13	13	13	13	13	13	13	13	13	13	13	13	13	13	11	11	11	11	9	9	9	9	10	10	10	10	11	11	11	11	10	10	10	10	13	13	13	13	12	12	12	12	15	15	15	15	21	21	21	21
10	10	10	10	10	10	10	10	10	10	10	10	10	10	10	10	10	10	10	10	10	10	10	10	10	10	10	10	10	10	10	10	10	10	10	10	10	10	10	10	10	10	10	10	10	10	10	10	10	10	10	10	10	10	10	10	10	10	10	10	10	10	10	10	10	10	10	10	12	12	12	12	12	12	12	12	12	12	12	12	12	12	12	12	12	12	12	12	12	12	12	12	12	12	12	12	13	13	13	13	11	11	11	11	11	11	11	11	11	11	11	11	11	11	11	11	13	13	13	13	13	13	13	13	13	13	13	13	13	13	13	13	13	13	13	13	13	13	13	13	12	12	12	12	12	12	12	12	12	12	12	12	12	12	12	12	15	15	15	15	15	15	15	15	14	14	14	14	15	15	15	15	15	15	15	15	12	12	12	12	12	12	12	12	12	12	12	12	12	12	12	12	12	12	12	12	12	12	12	12	12	12	12	12	12	12	12	12	12	12	12	12	12	12	12	12	12	12	12	12	12	12	12	12	12	12	12	12	12	12	12	12	12	12	12	12	12	12	12	12	12	12	12	12	12	12	12	12	12	12	12	12	12	12	12	12	12	12	12	12	13	13	13	13	12	12	12	12	12	12	12	12	12	12	12	12	12	12	12	12	12	12	12	12	12	12	12	12	12	12	12	12	12	12	12	12	12	12	12	12	13	13	13	13	13	13	13	13	13	13	13	13	11	11	11	11	10	10	10	10	10	10	10	10	11	11	11	11	11	11	11	11	11	11	11	11	10	10	10	10	11	11	11	11	10	10	10	10	13	13	13	13	13	13	13	13	13	13	13	13	13	13	13	13	11	11	11	11	13	13	13	13	13	13	13	13	8	8	8	8	13	13	13	13	10	10	10	10	12	12	12	12	12	12	12	12	17	17	17	17
10	10	10	10	10	10	10	10	10	10	10	10	10	10	10	10	10	10	10	10	10	10	10	10	10	10	10	10	10	10	10	10	10	10	10	10	10	10	10	10	10	10	10	10	10	10	10	10	10	10	10	10	10	10	10	10	10	10	10	10	10	10	10	10	10	10	10	10	12	12	12	12	12	12	12	12	12	12	12	12	12	12	12	12	12	12	12	12	12	12	12	12	12	12	12	12	13	13	13	13	11	11	11	11	11	11	11	11	11	11	11	11	11	11	11	11	13	13	13	13	13	13	13	13	13	13	13	13	13	13	13	13	13	13	13	13	13	13	13	13	12	12	12	12	12	12	12	12	12	12	12	12	12	12	12	12	15	15	15	15	15	15	15	15	14	14	14	14	15	15	15	15	15	15	15	15	12	12	12	12	12	12	12	12	12	12	12	12	12	12	12	12	12	12	12	12	12	12	12	12	12	12	12	12	12	12	12	12	12	12	12	12	12	12	12	12	12	12	12	12	12	12	12	12	12	12	12	12	12	12	12	12	12	12	12	12	12	12	12	12	12	12	12	12	12	12	12	12	12	12	12	12	12	12	12	12	12	12	12	12	13	13	13	13	12	12	12	12	12	12	12	12	12	12	12	12	12	12	12	12	12	12	12	12	12	12	12	12	12	12	12	12	12	12	12	12	12	12	12	12	13	13	13	13	13	13	13	13	13	13	13	13	11	11	11	11	10	10	10	10	10	10	10	10	11	11	11	11	11	11	11	11	11	11	11	11	10	10	10	10	11	11	11	11	10	10	10	10	13	13	13	13	13	13	13	13	13	13	13	13	13	13	13	13	11	11	11	11	13	13	13	13	13	13	13	13	8	8	8	8	13	13	13	13	10	10	10	10	12	12	12	12	12	12	12	12	17	17	17	17
10	10	10	10	10	10	10	10	10	10	10	10	10	10	10	10	10	10	10	10	10	10	10	10	10	10	10	10	10	10	10	10	10	10	10	10	10	10	10	10	10	10	10	10	10	10	10	10	10	10	10	10	10	10	10	10	10	10	10	10	10	10	10	10	10	10	10	10	12	12	12	12	12	12	12	12	12	12	12	12	12	12	12	12	12	12	12	12	12	12	12	12	12	12	12	12	13	13	13	13	11	11	11	11	11	11	11	11	11	11	11	11	11	11	11	11	13	13	13	13	13	13	13	13	13	13	13	13	13	13	13	13	13	13	13	13	13	13	13	13	12	12	12	12	12	12	12	12	12	12	12	12	12	12	12	12	15	15	15	15	15	15	15	15	14	14	14	14	15	15	15	15	15	15	15	15	12	12	12	12	12	12	12	12	12	12	12	12	12	12	12	12	12	12	12	12	12	12	12	12	12	12	12	12	12	12	12	12	12	12	12	12	12	12	12	12	12	12	12	12	12	12	12	12	12	12	12	12	12	12	12	12	12	12	12	12	12	12	12	12	12	12	12	12	12	12	12	12	12	12	12	12	12	12	12	12	12	12	12	12	13	13	13	13	12	12	12	12	12	12	12	12	12	12	12	12	12	12	12	12	12	12	12	12	12	12	12	12	12	12	12	12	12	12	12	12	12	12	12	12	13	13	13	13	13	13	13	13	13	13	13	13	11	11	11	11	10	10	10	10	10	10	10	10	11	11	11	11	11	11	11	11	11	11	11	11	10	10	10	10	11	11	11	11	10	10	10	10	13	13	13	13	13	13	13	13	13	13	13	13	13	13	13	13	11	11	11	11	13	13	13	13	13	13	13	13	8	8	8	8	13	13	13	13	10	10	10	10	12	12	12	12	12	12	12	12	17	17	17	17
10	10	10	10	10	10	10	10	10	10	10	10	10	10	10	10	10	10	10	10	10	10	10	10	10	10	10	10	10	10	10	10	10	10	10	10	10	10	10	10	10	10	10	10	10	10	10	10	10	10	10	10	10	10	10	10	10	10	10	10	10	10	10	10	10	10	10	10	12	12	12	12	12	12	12	12	12	12	12	12	12	12	12	12	12	12	12	12	12	12	12	12	12	12	12	12	13	13	13	13	11	11	11	11	11	11	11	11	11	11	11	11	11	11	11	11	13	13	13	13	13	13	13	13	13	13	13	13	13	13	13	13	13	13	13	13	13	13	13	13	12	12	12	12	12	12	12	12	12	12	12	12	12	12	12	12	15	15	15	15	15	15	15	15	14	14	14	14	15	15	15	15	15	15	15	15	12	12	12	12	12	12	12	12	12	12	12	12	12	12	12	12	12	12	12	12	12	12	12	12	12	12	12	12	12	12	12	12	12	12	12	12	12	12	12	12	12	12	12	12	12	12	12	12	12	12	12	12	12	12	12	12	12	12	12	12	12	12	12	12	12	12	12	12	12	12	12	12	12	12	12	12	12	12	12	12	12	12	12	12	13	13	13	13	12	12	12	12	12	12	12	12	12	12	12	12	12	12	12	12	12	12	12	12	12	12	12	12	12	12	12	12	12	12	12	12	12	12	12	12	13	13	13	13	13	13	13	13	13	13	13	13	11	11	11	11	10	10	10	10	10	10	10	10	11	11	11	11	11	11	11	11	11	11	11	11	10	10	10	10	11	11	11	11	10	10	10	10	13	13	13	13	13	13	13	13	13	13	13	13	13	13	13	13	11	11	11	11	13	13	13	13	13	13	13	13	8	8	8	8	13	13	13	13	10	10	10	10	12	12	12	12	12	12	12	12	17	17	17	17
10	10	10	10	10	10	10	10	10	10	10	10	9	9	9	9	9	9	9	9	10	10	10	10	10	10	10	10	10	10	10	10	10	10	10	10	10	10	10	10	10	10	10	10	10	10	10	10	10	10	10	10	10	10	10	10	10	10	10	10	10	10	10	10	10	10	10	10	13	13	13	13	12	12	12	12	12	12	12	12	12	12	12	12	12	12	12	12	12	12	12	12	12	12	12	12	12	12	12	12	11	11	11	11	11	11	11	11	11	11	11	11	11	11	11	11	13	13	13	13	13	13	13	13	13	13	13	13	13	13	13	13	13	13	13	13	13	13	13	13	13	13	13	13	12	12	12	12	12	12	12	12	12	12	12	12	12	12	12	12	12	12	12	12	12	12	12	12	12	12	12	12	12	12	12	12	12	12	12	12	12	12	12	12	12	12	12	12	12	12	12	12	12	12	12	12	12	12	12	12	13	13	13	13	13	13	13	13	13	13	13	13	13	13	13	13	12	12	12	12	12	12	12	12	12	12	12	12	12	12	12	12	12	12	12	12	12	12	12	12	12	12	12	12	12	12	12	12	12	12	12	12	12	12	12	12	12	12	12	12	12	12	12	12	12	12	12	12	12	12	12	12	12	12	12	12	12	12	12	12	12	12	12	12	12	12	12	12	12	12	12	12	12	12	12	12	12	12	12	12	13	13	13	13	13	13	13	13	13	13	13	13	13	13	13	13	11	11	11	11	11	11	11	11	13	13	13	13	13	13	13	13	11	11	11	11	11	11	11	11	13	13	13	13	11	11	11	11	13	13	13	13	13	13	13	13	8	8	8	8	8	8	8	8	7	7	7	7	10	10	10	10	5	5	5	5	5	5	5	5	5	5	5	5	3	3	3	3	9	9	9	9	13	13	13	13	13	13	13	13
10	10	10	10	10	10	10	10	10	10	10	10	9	9	9	9	9	9	9	9	10	10	10	10	10	10	10	10	10	10	10	10	10	10	10	10	10	10	10	10	10	10	10	10	10	10	10	10	10	10	10	10	10	10	10	10	10	10	10	10	10	10	10	10	10	10	10	10	13	13	13	13	12	12	12	12	12	12	12	12	12	12	12	12	12	12	12	12	12	12	12	12	12	12	12	12	12	12	12	12	11	11	11	11	11	11	11	11	11	11	11	11	11	11	11	11	13	13	13	13	13	13	13	13	13	13	13	13	13	13	13	13	13	13	13	13	13	13	13	13	13	13	13	13	12	12	12	12	12	12	12	12	12	12	12	12	12	12	12	12	12	12	12	12	12	12	12	12	12	12	12	12	12	12	12	12	12	12	12	12	12	12	12	12	12	12	12	12	12	12	12	12	12	12	12	12	12	12	12	12	13	13	13	13	13	13	13	13	13	13	13	13	13	13	13	13	12	12	12	12	12	12	12	12	12	12	12	12	12	12	12	12	12	12	12	12	12	12	12	12	12	12	12	12	12	12	12	12	12	12	12	12	12	12	12	12	12	12	12	12	12	12	12	12	12	12	12	12	12	12	12	12	12	12	12	12	12	12	12	12	12	12	12	12	12	12	12	12	12	12	12	12	12	12	12	12	12	12	12	12	13	13	13	13	13	13	13	13	13	13	13	13	13	13	13	13	11	11	11	11	11	11	11	11	13	13	13	13	13	13	13	13	11	11	11	11	11	11	11	11	13	13	13	13	11	11	11	11	13	13	13	13	13	13	13	13	8	8	8	8	8	8	8	8	7	7	7	7	10	10	10	10	5	5	5	5	5	5	5	5	5	5	5	5	3	3	3	3	9	9	9	9	13	13	13	13	13	13	13	13
10	10	10	10	10	10	10	10	10	10	10	10	9	9	9	9	9	9	9	9	10	10	10	10	10	10	10	10	10	10	10	10	10	10	10	10	10	10	10	10	10	10	10	10	10	10	10	10	10	10	10	10	10	10	10	10	10	10	10	10	10	10	10	10	10	10	10	10	13	13	13	13	12	12	12	12	12	12	12	12	12	12	12	12	12	12	12	12	12	12	12	12	12	12	12	12	12	12	12	12	11	11	11	11	11	11	11	11	11	11	11	11	11	11	11	11	13	13	13	13	13	13	13	13	13	13	13	13	13	13	13	13	13	13	13	13	13	13	13	13	13	13	13	13	12	12	12	12	12	12	12	12	12	12	12	12	12	12	12	12	12	12	12	12	12	12	12	12	12	12	12	12	12	12	12	12	12	12	12	12	12	12	12	12	12	12	12	12	12	12	12	12	12	12	12	12	12	12	12	12	13	13	13	13	13	13	13	13	13	13	13	13	13	13	13	13	12	12	12	12	12	12	12	12	12	12	12	12	12	12	12	12	12	12	12	12	12	12	12	12	12	12	12	12	12	12	12	12	12	12	12	12	12	12	12	12	12	12	12	12	12	12	12	12	12	12	12	12	12	12	12	12	12	12	12	12	12	12	12	12	12	12	12	12	12	12	12	12	12	12	12	12	12	12	12	12	12	12	12	12	13	13	13	13	13	13	13	13	13	13	13	13	13	13	13	13	11	11	11	11	11	11	11	11	13	13	13	13	13	13	13	13	11	11	11	11	11	11	11	11	13	13	13	13	11	11	11	11	13	13	13	13	13	13	13	13	8	8	8	8	8	8	8	8	7	7	7	7	10	10	10	10	5	5	5	5	5	5	5	5	5	5	5	5	3	3	3	3	9	9	9	9	13	13	13	13	13	13	13	13
10	10	10	10	10	10	10	10	10	10	10	10	9	9	9	9	9	9	9	9	10	10	10	10	10	10	10	10	10	10	10	10	10	10	10	10	10	10	10	10	10	10	10	10	10	10	10	10	10	10	10	10	10	10	10	10	10	10	10	10	10	10	10	10	10	10	10	10	13	13	13	13	12	12	12	12	12	12	12	12	12	12	12	12	12	12	12	12	12	12	12	12	12	12	12	12	12	12	12	12	11	11	11	11	11	11	11	11	11	11	11	11	11	11	11	11	13	13	13	13	13	13	13	13	13	13	13	13	13	13	13	13	13	13	13	13	13	13	13	13	13	13	13	13	12	12	12	12	12	12	12	12	12	12	12	12	12	12	12	12	12	12	12	12	12	12	12	12	12	12	12	12	12	12	12	12	12	12	12	12	12	12	12	12	12	12	12	12	12	12	12	12	12	12	12	12	12	12	12	12	13	13	13	13	13	13	13	13	13	13	13	13	13	13	13	13	12	12	12	12	12	12	12	12	12	12	12	12	12	12	12	12	12	12	12	12	12	12	12	12	12	12	12	12	12	12	12	12	12	12	12	12	12	12	12	12	12	12	12	12	12	12	12	12	12	12	12	12	12	12	12	12	12	12	12	12	12	12	12	12	12	12	12	12	12	12	12	12	12	12	12	12	12	12	12	12	12	12	12	12	13	13	13	13	13	13	13	13	13	13	13	13	13	13	13	13	11	11	11	11	11	11	11	11	13	13	13	13	13	13	13	13	11	11	11	11	11	11	11	11	13	13	13	13	11	11	11	11	13	13	13	13	13	13	13	13	8	8	8	8	8	8	8	8	7	7	7	7	10	10	10	10	5	5	5	5	5	5	5	5	5	5	5	5	3	3	3	3	9	9	9	9	13	13	13	13	13	13	13	13
10	10	10	10	10	10	10	10	9	9	9	9	9	9	9	9	9	9	9	9	10	10	10	10	10	10	10	10	10	10	10	10	10	10	10	10	10	10	10	10	10	10	10	10	10	10	10	10	10	10	10	10	10	10	10	10	10	10	10	10	10	10	10	10	10	10	10	10	10	10	10	10	13	13	13	13	12	12	12	12	12	12	12	12	12	12	12	12	12	12	12	12	12	12	12	12	15	15	15	15	13	13	13	13	13	13	13	13	13	13	13	13	13	13	13	13	13	13	13	13	11	11	11	11	13	13	13	13	13	13	13	13	13	13	13	13	13	13	13	13	13	13	13	13	12	12	12	12	12	12	12	12	12	12	12	12	13	13	13	13	13	13	13	13	12	12	12	12	12	12	12	12	12	12	12	12	12	12	12	12	12	12	12	12	12	12	12	12	12	12	12	12	12	12	12	12	13	13	13	13	13	13	13	13	13	13	13	13	13	13	13	13	13	13	13	13	12	12	12	12	12	12	12	12	12	12	12	12	12	12	12	12	12	12	12	12	12	12	12	12	12	12	12	12	12	12	12	12	12	12	12	12	12	12	12	12	12	12	12	12	12	12	12	12	12	12	12	12	12	12	12	12	12	12	12	12	12	12	12	12	12	12	12	12	12	12	12	12	12	12	12	12	12	12	12	12	12	12	12	12	12	12	12	12	12	12	12	12	13	13	13	13	13	13	13	13	13	13	13	13	13	13	13	13	13	13	13	13	13	13	13	13	13	13	13	13	13	13	13	13	13	13	13	13	12	12	12	12	13	13	13	13	11	11	11	11	10	10	10	10	8	8	8	8	6	6	6	6	5	5	5	5	9	9	9	9	13	13	13	13	9	9	9	9	3	3	3	3	3	3	3	3	7	7	7	7	11	11	11	11
10	10	10	10	10	10	10	10	9	9	9	9	9	9	9	9	9	9	9	9	10	10	10	10	10	10	10	10	10	10	10	10	10	10	10	10	10	10	10	10	10	10	10	10	10	10	10	10	10	10	10	10	10	10	10	10	10	10	10	10	10	10	10	10	10	10	10	10	10	10	10	10	13	13	13	13	12	12	12	12	12	12	12	12	12	12	12	12	12	12	12	12	12	12	12	12	15	15	15	15	13	13	13	13	13	13	13	13	13	13	13	13	13	13	13	13	13	13	13	13	11	11	11	11	13	13	13	13	13	13	13	13	13	13	13	13	13	13	13	13	13	13	13	13	12	12	12	12	12	12	12	12	12	12	12	12	13	13	13	13	13	13	13	13	12	12	12	12	12	12	12	12	12	12	12	12	12	12	12	12	12	12	12	12	12	12	12	12	12	12	12	12	12	12	12	12	13	13	13	13	13	13	13	13	13	13	13	13	13	13	13	13	13	13	13	13	12	12	12	12	12	12	12	12	12	12	12	12	12	12	12	12	12	12	12	12	12	12	12	12	12	12	12	12	12	12	12	12	12	12	12	12	12	12	12	12	12	12	12	12	12	12	12	12	12	12	12	12	12	12	12	12	12	12	12	12	12	12	12	12	12	12	12	12	12	12	12	12	12	12	12	12	12	12	12	12	12	12	12	12	12	12	12	12	12	12	12	12	13	13	13	13	13	13	13	13	13	13	13	13	13	13	13	13	13	13	13	13	13	13	13	13	13	13	13	13	13	13	13	13	13	13	13	13	12	12	12	12	13	13	13	13	11	11	11	11	10	10	10	10	8	8	8	8	6	6	6	6	5	5	5	5	9	9	9	9	13	13	13	13	9	9	9	9	3	3	3	3	3	3	3	3	7	7	7	7	11	11	11	11
10	10	10	10	10	10	10	10	9	9	9	9	9	9	9	9	9	9	9	9	10	10	10	10	10	10	10	10	10	10	10	10	10	10	10	10	10	10	10	10	10	10	10	10	10	10	10	10	10	10	10	10	10	10	10	10	10	10	10	10	10	10	10	10	10	10	10	10	10	10	10	10	13	13	13	13	12	12	12	12	12	12	12	12	12	12	12	12	12	12	12	12	12	12	12	12	15	15	15	15	13	13	13	13	13	13	13	13	13	13	13	13	13	13	13	13	13	13	13	13	11	11	11	11	13	13	13	13	13	13	13	13	13	13	13	13	13	13	13	13	13	13	13	13	12	12	12	12	12	12	12	12	12	12	12	12	13	13	13	13	13	13	13	13	12	12	12	12	12	12	12	12	12	12	12	12	12	12	12	12	12	12	12	12	12	12	12	12	12	12	12	12	12	12	12	12	13	13	13	13	13	13	13	13	13	13	13	13	13	13	13	13	13	13	13	13	12	12	12	12	12	12	12	12	12	12	12	12	12	12	12	12	12	12	12	12	12	12	12	12	12	12	12	12	12	12	12	12	12	12	12	12	12	12	12	12	12	12	12	12	12	12	12	12	12	12	12	12	12	12	12	12	12	12	12	12	12	12	12	12	12	12	12	12	12	12	12	12	12	12	12	12	12	12	12	12	12	12	12	12	12	12	12	12	12	12	12	12	13	13	13	13	13	13	13	13	13	13	13	13	13	13	13	13	13	13	13	13	13	13	13	13	13	13	13	13	13	13	13	13	13	13	13	13	12	12	12	12	13	13	13	13	11	11	11	11	10	10	10	10	8	8	8	8	6	6	6	6	5	5	5	5	9	9	9	9	13	13	13	13	9	9	9	9	3	3	3	3	3	3	3	3	7	7	7	7	11	11	11	11
10	10	10	10	10	10	10	10	9	9	9	9	9	9	9	9	9	9	9	9	10	10	10	10	10	10	10	10	10	10	10	10	10	10	10	10	10	10	10	10	10	10	10	10	10	10	10	10	10	10	10	10	10	10	10	10	10	10	10	10	10	10	10	10	10	10	10	10	10	10	10	10	13	13	13	13	12	12	12	12	12	12	12	12	12	12	12	12	12	12	12	12	12	12	12	12	15	15	15	15	13	13	13	13	13	13	13	13	13	13	13	13	13	13	13	13	13	13	13	13	11	11	11	11	13	13	13	13	13	13	13	13	13	13	13	13	13	13	13	13	13	13	13	13	12	12	12	12	12	12	12	12	12	12	12	12	13	13	13	13	13	13	13	13	12	12	12	12	12	12	12	12	12	12	12	12	12	12	12	12	12	12	12	12	12	12	12	12	12	12	12	12	12	12	12	12	13	13	13	13	13	13	13	13	13	13	13	13	13	13	13	13	13	13	13	13	12	12	12	12	12	12	12	12	12	12	12	12	12	12	12	12	12	12	12	12	12	12	12	12	12	12	12	12	12	12	12	12	12	12	12	12	12	12	12	12	12	12	12	12	12	12	12	12	12	12	12	12	12	12	12	12	12	12	12	12	12	12	12	12	12	12	12	12	12	12	12	12	12	12	12	12	12	12	12	12	12	12	12	12	12	12	12	12	12	12	12	12	13	13	13	13	13	13	13	13	13	13	13	13	13	13	13	13	13	13	13	13	13	13	13	13	13	13	13	13	13	13	13	13	13	13	13	13	12	12	12	12	13	13	13	13	11	11	11	11	10	10	10	10	8	8	8	8	6	6	6	6	5	5	5	5	9	9	9	9	13	13	13	13	9	9	9	9	3	3	3	3	3	3	3	3	7	7	7	7	11	11	11	11
10	10	10	10	10	10	10	10	10	10	10	10	9	9	9	9	9	9	9	9	9	9	9	9	10	10	10	10	10	10	10	10	10	10	10	10	10	10	10	10	10	10	10	10	10	10	10	10	10	10	10	10	10	10	10	10	10	10	10	10	10	10	10	10	10	10	10	10	10	10	10	10	10	10	10	10	13	13	13	13	12	12	12	12	12	12	12	12	12	12	12	12	12	12	12	12	12	12	12	12	12	12	12	12	12	12	12	12	13	13	13	13	13	13	13	13	13	13	13	13	13	13	13	13	13	13	13	13	13	13	13	13	13	13	13	13	12	12	12	12	13	13	13	13	13	13	13	13	13	13	13	13	13	13	13	13	13	13	13	13	13	13	13	13	12	12	12	12	12	12	12	12	12	12	12	12	12	12	12	12	12	12	12	12	12	12	12	12	12	12	12	12	13	13	13	13	13	13	13	13	13	13	13	13	13	13	13	13	13	13	13	13	13	13	13	13	12	12	12	12	12	12	12	12	12	12	12	12	12	12	12	12	12	12	12	12	12	12	12	12	12	12	12	12	12	12	12	12	12	12	12	12	12	12	12	12	15	15	15	15	15	15	15	15	15	15	15	15	14	14	14	14	15	15	15	15	12	12	12	12	12	12	12	12	12	12	12	12	12	12	12	12	12	12	12	12	12	12	12	12	13	13	13	13	13	13	13	13	13	13	13	13	13	13	13	13	13	13	13	13	13	13	13	13	13	13	13	13	13	13	13	13	13	13	13	13	12	12	12	12	12	12	12	12	12	12	12	12	12	12	12	12	13	13	13	13	11	11	11	11	10	10	10	10	10	10	10	10	12	12	12	12	17	17	17	17	20	20	20	20	17	17	17	17	12	12	12	12	7	7	7	7	8	8	8	8	8	8	8	8
10	10	10	10	10	10	10	10	10	10	10	10	9	9	9	9	9	9	9	9	9	9	9	9	10	10	10	10	10	10	10	10	10	10	10	10	10	10	10	10	10	10	10	10	10	10	10	10	10	10	10	10	10	10	10	10	10	10	10	10	10	10	10	10	10	10	10	10	10	10	10	10	10	10	10	10	13	13	13	13	12	12	12	12	12	12	12	12	12	12	12	12	12	12	12	12	12	12	12	12	12	12	12	12	12	12	12	12	13	13	13	13	13	13	13	13	13	13	13	13	13	13	13	13	13	13	13	13	13	13	13	13	13	13	13	13	12	12	12	12	13	13	13	13	13	13	13	13	13	13	13	13	13	13	13	13	13	13	13	13	13	13	13	13	12	12	12	12	12	12	12	12	12	12	12	12	12	12	12	12	12	12	12	12	12	12	12	12	12	12	12	12	13	13	13	13	13	13	13	13	13	13	13	13	13	13	13	13	13	13	13	13	13	13	13	13	12	12	12	12	12	12	12	12	12	12	12	12	12	12	12	12	12	12	12	12	12	12	12	12	12	12	12	12	12	12	12	12	12	12	12	12	12	12	12	12	15	15	15	15	15	15	15	15	15	15	15	15	14	14	14	14	15	15	15	15	12	12	12	12	12	12	12	12	12	12	12	12	12	12	12	12	12	12	12	12	12	12	12	12	13	13	13	13	13	13	13	13	13	13	13	13	13	13	13	13	13	13	13	13	13	13	13	13	13	13	13	13	13	13	13	13	13	13	13	13	12	12	12	12	12	12	12	12	12	12	12	12	12	12	12	12	13	13	13	13	11	11	11	11	10	10	10	10	10	10	10	10	12	12	12	12	17	17	17	17	20	20	20	20	17	17	17	17	12	12	12	12	7	7	7	7	8	8	8	8	8	8	8	8
10	10	10	10	10	10	10	10	10	10	10	10	9	9	9	9	9	9	9	9	9	9	9	9	10	10	10	10	10	10	10	10	10	10	10	10	10	10	10	10	10	10	10	10	10	10	10	10	10	10	10	10	10	10	10	10	10	10	10	10	10	10	10	10	10	10	10	10	10	10	10	10	10	10	10	10	13	13	13	13	12	12	12	12	12	12	12	12	12	12	12	12	12	12	12	12	12	12	12	12	12	12	12	12	12	12	12	12	13	13	13	13	13	13	13	13	13	13	13	13	13	13	13	13	13	13	13	13	13	13	13	13	13	13	13	13	12	12	12	12	13	13	13	13	13	13	13	13	13	13	13	13	13	13	13	13	13	13	13	13	13	13	13	13	12	12	12	12	12	12	12	12	12	12	12	12	12	12	12	12	12	12	12	12	12	12	12	12	12	12	12	12	13	13	13	13	13	13	13	13	13	13	13	13	13	13	13	13	13	13	13	13	13	13	13	13	12	12	12	12	12	12	12	12	12	12	12	12	12	12	12	12	12	12	12	12	12	12	12	12	12	12	12	12	12	12	12	12	12	12	12	12	12	12	12	12	15	15	15	15	15	15	15	15	15	15	15	15	14	14	14	14	15	15	15	15	12	12	12	12	12	12	12	12	12	12	12	12	12	12	12	12	12	12	12	12	12	12	12	12	13	13	13	13	13	13	13	13	13	13	13	13	13	13	13	13	13	13	13	13	13	13	13	13	13	13	13	13	13	13	13	13	13	13	13	13	12	12	12	12	12	12	12	12	12	12	12	12	12	12	12	12	13	13	13	13	11	11	11	11	10	10	10	10	10	10	10	10	12	12	12	12	17	17	17	17	20	20	20	20	17	17	17	17	12	12	12	12	7	7	7	7	8	8	8	8	8	8	8	8
10	10	10	10	10	10	10	10	10	10	10	10	9	9	9	9	9	9	9	9	9	9	9	9	10	10	10	10	10	10	10	10	10	10	10	10	10	10	10	10	10	10	10	10	10	10	10	10	10	10	10	10	10	10	10	10	10	10	10	10	10	10	10	10	10	10	10	10	10	10	10	10	10	10	10	10	13	13	13	13	12	12	12	12	12	12	12	12	12	12	12	12	12	12	12	12	12	12	12	12	12	12	12	12	12	12	12	12	13	13	13	13	13	13	13	13	13	13	13	13	13	13	13	13	13	13	13	13	13	13	13	13	13	13	13	13	12	12	12	12	13	13	13	13	13	13	13	13	13	13	13	13	13	13	13	13	13	13	13	13	13	13	13	13	12	12	12	12	12	12	12	12	12	12	12	12	12	12	12	12	12	12	12	12	12	12	12	12	12	12	12	12	13	13	13	13	13	13	13	13	13	13	13	13	13	13	13	13	13	13	13	13	13	13	13	13	12	12	12	12	12	12	12	12	12	12	12	12	12	12	12	12	12	12	12	12	12	12	12	12	12	12	12	12	12	12	12	12	12	12	12	12	12	12	12	12	15	15	15	15	15	15	15	15	15	15	15	15	14	14	14	14	15	15	15	15	12	12	12	12	12	12	12	12	12	12	12	12	12	12	12	12	12	12	12	12	12	12	12	12	13	13	13	13	13	13	13	13	13	13	13	13	13	13	13	13	13	13	13	13	13	13	13	13	13	13	13	13	13	13	13	13	13	13	13	13	12	12	12	12	12	12	12	12	12	12	12	12	12	12	12	12	13	13	13	13	11	11	11	11	10	10	10	10	10	10	10	10	12	12	12	12	17	17	17	17	20	20	20	20	17	17	17	17	12	12	12	12	7	7	7	7	8	8	8	8	8	8	8	8
10	10	10	10	10	10	10	10	10	10	10	10	10	10	10	10	10	10	10	10	10	10	10	10	10	10	10	10	10	10	10	10	10	10	10	10	10	10	10	10	10	10	10	10	10	10	10	10	10	10	10	10	10	10	10	10	10	10	10	10	10	10	10	10	10	10	10	10	10	10	10	10	10	10	10	10	10	10	10	10	11	11	11	11	12	12	12	12	12	12	12	12	12	12	12	12	12	12	12	12	12	12	12	12	12	12	12	12	12	12	12	12	13	13	13	13	13	13	13	13	13	13	13	13	13	13	13	13	13	13	13	13	12	12	12	12	12	12	12	12	12	12	12	12	12	12	12	12	12	12	12	12	12	12	12	12	13	13	13	13	12	12	12	12	12	12	12	12	12	12	12	12	12	12	12	12	12	12	12	12	12	12	12	12	12	12	12	12	13	13	13	13	13	13	13	13	13	13	13	13	13	13	13	13	13	13	13	13	13	13	13	13	13	13	13	13	13	13	13	13	12	12	12	12	12	12	12	12	12	12	12	12	12	12	12	12	12	12	12	12	12	12	12	12	12	12	12	12	14	14	14	14	17	17	17	17	14	14	14	14	14	14	14	14	17	17	17	17	17	17	17	17	17	17	17	17	14	14	14	14	14	14	14	14	15	15	15	15	12	12	12	12	12	12	12	12	12	12	12	12	13	13	13	13	12	12	12	12	12	12	12	12	12	12	12	12	12	12	12	12	12	12	12	12	13	13	13	13	12	12	12	12	12	12	12	12	12	12	12	12	13	13	13	13	12	12	12	12	12	12	12	12	12	12	12	12	11	11	11	11	13	13	13	13	16	16	16	16	18	18	18	18	18	18	18	18	18	18	18	18	16	16	16	16	17	17	17	17	15	15	15	15	14	14	14	14	10	10	10	10
10	10	10	10	10	10	10	10	10	10	10	10	10	10	10	10	10	10	10	10	10	10	10	10	10	10	10	10	10	10	10	10	10	10	10	10	10	10	10	10	10	10	10	10	10	10	10	10	10	10	10	10	10	10	10	10	10	10	10	10	10	10	10	10	10	10	10	10	10	10	10	10	10	10	10	10	10	10	10	10	11	11	11	11	12	12	12	12	12	12	12	12	12	12	12	12	12	12	12	12	12	12	12	12	12	12	12	12	12	12	12	12	13	13	13	13	13	13	13	13	13	13	13	13	13	13	13	13	13	13	13	13	12	12	12	12	12	12	12	12	12	12	12	12	12	12	12	12	12	12	12	12	12	12	12	12	13	13	13	13	12	12	12	12	12	12	12	12	12	12	12	12	12	12	12	12	12	12	12	12	12	12	12	12	12	12	12	12	13	13	13	13	13	13	13	13	13	13	13	13	13	13	13	13	13	13	13	13	13	13	13	13	13	13	13	13	13	13	13	13	12	12	12	12	12	12	12	12	12	12	12	12	12	12	12	12	12	12	12	12	12	12	12	12	12	12	12	12	14	14	14	14	17	17	17	17	14	14	14	14	14	14	14	14	17	17	17	17	17	17	17	17	17	17	17	17	14	14	14	14	14	14	14	14	15	15	15	15	12	12	12	12	12	12	12	12	12	12	12	12	13	13	13	13	12	12	12	12	12	12	12	12	12	12	12	12	12	12	12	12	12	12	12	12	13	13	13	13	12	12	12	12	12	12	12	12	12	12	12	12	13	13	13	13	12	12	12	12	12	12	12	12	12	12	12	12	11	11	11	11	13	13	13	13	16	16	16	16	18	18	18	18	18	18	18	18	18	18	18	18	16	16	16	16	17	17	17	17	15	15	15	15	14	14	14	14	10	10	10	10
10	10	10	10	10	10	10	10	10	10	10	10	10	10	10	10	10	10	10	10	10	10	10	10	10	10	10	10	10	10	10	10	10	10	10	10	10	10	10	10	10	10	10	10	10	10	10	10	10	10	10	10	10	10	10	10	10	10	10	10	10	10	10	10	10	10	10	10	10	10	10	10	10	10	10	10	10	10	10	10	11	11	11	11	12	12	12	12	12	12	12	12	12	12	12	12	12	12	12	12	12	12	12	12	12	12	12	12	12	12	12	12	13	13	13	13	13	13	13	13	13	13	13	13	13	13	13	13	13	13	13	13	12	12	12	12	12	12	12	12	12	12	12	12	12	12	12	12	12	12	12	12	12	12	12	12	13	13	13	13	12	12	12	12	12	12	12	12	12	12	12	12	12	12	12	12	12	12	12	12	12	12	12	12	12	12	12	12	13	13	13	13	13	13	13	13	13	13	13	13	13	13	13	13	13	13	13	13	13	13	13	13	13	13	13	13	13	13	13	13	12	12	12	12	12	12	12	12	12	12	12	12	12	12	12	12	12	12	12	12	12	12	12	12	12	12	12	12	14	14	14	14	17	17	17	17	14	14	14	14	14	14	14	14	17	17	17	17	17	17	17	17	17	17	17	17	14	14	14	14	14	14	14	14	15	15	15	15	12	12	12	12	12	12	12	12	12	12	12	12	13	13	13	13	12	12	12	12	12	12	12	12	12	12	12	12	12	12	12	12	12	12	12	12	13	13	13	13	12	12	12	12	12	12	12	12	12	12	12	12	13	13	13	13	12	12	12	12	12	12	12	12	12	12	12	12	11	11	11	11	13	13	13	13	16	16	16	16	18	18	18	18	18	18	18	18	18	18	18	18	16	16	16	16	17	17	17	17	15	15	15	15	14	14	14	14	10	10	10	10
10	10	10	10	10	10	10	10	10	10	10	10	10	10	10	10	10	10	10	10	10	10	10	10	10	10	10	10	10	10	10	10	10	10	10	10	10	10	10	10	10	10	10	10	10	10	10	10	10	10	10	10	10	10	10	10	10	10	10	10	10	10	10	10	10	10	10	10	10	10	10	10	10	10	10	10	10	10	10	10	11	11	11	11	12	12	12	12	12	12	12	12	12	12	12	12	12	12	12	12	12	12	12	12	12	12	12	12	12	12	12	12	13	13	13	13	13	13	13	13	13	13	13	13	13	13	13	13	13	13	13	13	12	12	12	12	12	12	12	12	12	12	12	12	12	12	12	12	12	12	12	12	12	12	12	12	13	13	13	13	12	12	12	12	12	12	12	12	12	12	12	12	12	12	12	12	12	12	12	12	12	12	12	12	12	12	12	12	13	13	13	13	13	13	13	13	13	13	13	13	13	13	13	13	13	13	13	13	13	13	13	13	13	13	13	13	13	13	13	13	12	12	12	12	12	12	12	12	12	12	12	12	12	12	12	12	12	12	12	12	12	12	12	12	12	12	12	12	14	14	14	14	17	17	17	17	14	14	14	14	14	14	14	14	17	17	17	17	17	17	17	17	17	17	17	17	14	14	14	14	14	14	14	14	15	15	15	15	12	12	12	12	12	12	12	12	12	12	12	12	13	13	13	13	12	12	12	12	12	12	12	12	12	12	12	12	12	12	12	12	12	12	12	12	13	13	13	13	12	12	12	12	12	12	12	12	12	12	12	12	13	13	13	13	12	12	12	12	12	12	12	12	12	12	12	12	11	11	11	11	13	13	13	13	16	16	16	16	18	18	18	18	18	18	18	18	18	18	18	18	16	16	16	16	17	17	17	17	15	15	15	15	14	14	14	14	10	10	10	10
10	10	10	10	10	10	10	10	10	10	10	10	11	11	11	11	10	10	10	10	10	10	10	10	10	10	10	10	10	10	10	10	13	13	13	13	11	11	11	11	10	10	10	10	10	10	10	10	10	10	10	10	10	10	10	10	10	10	10	10	10	10	10	10	10	10	10	10	10	10	10	10	10	10	10	10	10	10	10	10	10	10	10	10	10	10	10	10	10	10	10	10	11	11	11	11	13	13	13	13	13	13	13	13	12	12	12	12	12	12	12	12	12	12	12	12	13	13	13	13	13	13	13	13	13	13	13	13	12	12	12	12	12	12	12	12	12	12	12	12	12	12	12	12	12	12	12	12	12	12	12	12	12	12	12	12	12	12	12	12	12	12	12	12	12	12	12	12	12	12	12	12	12	12	12	12	12	12	12	12	12	12	12	12	12	12	12	12	13	13	13	13	13	13	13	13	13	13	13	13	13	13	13	13	13	13	13	13	13	13	13	13	13	13	13	13	13	13	13	13	13	13	13	13	12	12	12	12	12	12	12	12	15	15	15	15	15	15	15	15	14	14	14	14	17	17	17	17	17	17	17	17	16	16	16	16	17	17	17	17	17	17	17	17	17	17	17	17	17	17	17	17	17	17	17	17	17	17	17	17	16	16	16	16	17	17	17	17	16	16	16	16	17	17	17	17	12	12	12	12	15	15	15	15	14	14	14	14	17	17	17	17	14	14	14	14	12	12	12	12	12	12	12	12	12	12	12	12	12	12	12	12	13	13	13	13	12	12	12	12	15	15	15	15	15	15	15	15	15	15	15	15	12	12	12	12	12	12	12	12	17	17	17	17	16	16	16	16	18	18	18	18	20	20	20	20	22	22	22	22	22	22	22	22	20	20	20	20	19	19	19	19	16	16	16	16	16	16	16	16
10	10	10	10	10	10	10	10	10	10	10	10	11	11	11	11	10	10	10	10	10	10	10	10	10	10	10	10	10	10	10	10	13	13	13	13	11	11	11	11	10	10	10	10	10	10	10	10	10	10	10	10	10	10	10	10	10	10	10	10	10	10	10	10	10	10	10	10	10	10	10	10	10	10	10	10	10	10	10	10	10	10	10	10	10	10	10	10	10	10	10	10	11	11	11	11	13	13	13	13	13	13	13	13	12	12	12	12	12	12	12	12	12	12	12	12	13	13	13	13	13	13	13	13	13	13	13	13	12	12	12	12	12	12	12	12	12	12	12	12	12	12	12	12	12	12	12	12	12	12	12	12	12	12	12	12	12	12	12	12	12	12	12	12	12	12	12	12	12	12	12	12	12	12	12	12	12	12	12	12	12	12	12	12	12	12	12	12	13	13	13	13	13	13	13	13	13	13	13	13	13	13	13	13	13	13	13	13	13	13	13	13	13	13	13	13	13	13	13	13	13	13	13	13	12	12	12	12	12	12	12	12	15	15	15	15	15	15	15	15	14	14	14	14	17	17	17	17	17	17	17	17	16	16	16	16	17	17	17	17	17	17	17	17	17	17	17	17	17	17	17	17	17	17	17	17	17	17	17	17	16	16	16	16	17	17	17	17	16	16	16	16	17	17	17	17	12	12	12	12	15	15	15	15	14	14	14	14	17	17	17	17	14	14	14	14	12	12	12	12	12	12	12	12	12	12	12	12	12	12	12	12	13	13	13	13	12	12	12	12	15	15	15	15	15	15	15	15	15	15	15	15	12	12	12	12	12	12	12	12	17	17	17	17	16	16	16	16	18	18	18	18	20	20	20	20	22	22	22	22	22	22	22	22	20	20	20	20	19	19	19	19	16	16	16	16	16	16	16	16
10	10	10	10	10	10	10	10	10	10	10	10	11	11	11	11	10	10	10	10	10	10	10	10	10	10	10	10	10	10	10	10	13	13	13	13	11	11	11	11	10	10	10	10	10	10	10	10	10	10	10	10	10	10	10	10	10	10	10	10	10	10	10	10	10	10	10	10	10	10	10	10	10	10	10	10	10	10	10	10	10	10	10	10	10	10	10	10	10	10	10	10	11	11	11	11	13	13	13	13	13	13	13	13	12	12	12	12	12	12	12	12	12	12	12	12	13	13	13	13	13	13	13	13	13	13	13	13	12	12	12	12	12	12	12	12	12	12	12	12	12	12	12	12	12	12	12	12	12	12	12	12	12	12	12	12	12	12	12	12	12	12	12	12	12	12	12	12	12	12	12	12	12	12	12	12	12	12	12	12	12	12	12	12	12	12	12	12	13	13	13	13	13	13	13	13	13	13	13	13	13	13	13	13	13	13	13	13	13	13	13	13	13	13	13	13	13	13	13	13	13	13	13	13	12	12	12	12	12	12	12	12	15	15	15	15	15	15	15	15	14	14	14	14	17	17	17	17	17	17	17	17	16	16	16	16	17	17	17	17	17	17	17	17	17	17	17	17	17	17	17	17	17	17	17	17	17	17	17	17	16	16	16	16	17	17	17	17	16	16	16	16	17	17	17	17	12	12	12	12	15	15	15	15	14	14	14	14	17	17	17	17	14	14	14	14	12	12	12	12	12	12	12	12	12	12	12	12	12	12	12	12	13	13	13	13	12	12	12	12	15	15	15	15	15	15	15	15	15	15	15	15	12	12	12	12	12	12	12	12	17	17	17	17	16	16	16	16	18	18	18	18	20	20	20	20	22	22	22	22	22	22	22	22	20	20	20	20	19	19	19	19	16	16	16	16	16	16	16	16
10	10	10	10	10	10	10	10	10	10	10	10	11	11	11	11	10	10	10	10	10	10	10	10	10	10	10	10	10	10	10	10	13	13	13	13	11	11	11	11	10	10	10	10	10	10	10	10	10	10	10	10	10	10	10	10	10	10	10	10	10	10	10	10	10	10	10	10	10	10	10	10	10	10	10	10	10	10	10	10	10	10	10	10	10	10	10	10	10	10	10	10	11	11	11	11	13	13	13	13	13	13	13	13	12	12	12	12	12	12	12	12	12	12	12	12	13	13	13	13	13	13	13	13	13	13	13	13	12	12	12	12	12	12	12	12	12	12	12	12	12	12	12	12	12	12	12	12	12	12	12	12	12	12	12	12	12	12	12	12	12	12	12	12	12	12	12	12	12	12	12	12	12	12	12	12	12	12	12	12	12	12	12	12	12	12	12	12	13	13	13	13	13	13	13	13	13	13	13	13	13	13	13	13	13	13	13	13	13	13	13	13	13	13	13	13	13	13	13	13	13	13	13	13	12	12	12	12	12	12	12	12	15	15	15	15	15	15	15	15	14	14	14	14	17	17	17	17	17	17	17	17	16	16	16	16	17	17	17	17	17	17	17	17	17	17	17	17	17	17	17	17	17	17	17	17	17	17	17	17	16	16	16	16	17	17	17	17	16	16	16	16	17	17	17	17	12	12	12	12	15	15	15	15	14	14	14	14	17	17	17	17	14	14	14	14	12	12	12	12	12	12	12	12	12	12	12	12	12	12	12	12	13	13	13	13	12	12	12	12	15	15	15	15	15	15	15	15	15	15	15	15	12	12	12	12	12	12	12	12	17	17	17	17	16	16	16	16	18	18	18	18	20	20	20	20	22	22	22	22	22	22	22	22	20	20	20	20	19	19	19	19	16	16	16	16	16	16	16	16
10	10	10	10	11	11	11	11	13	13	13	13	13	13	13	13	13	13	13	13	13	13	13	13	13	13	13	13	13	13	13	13	12	12	12	12	12	12	12	12	13	13	13	13	10	10	10	10	9	9	9	9	10	10	10	10	10	10	10	10	10	10	10	10	10	10	10	10	10	10	10	10	10	10	10	10	9	9	9	9	10	10	10	10	10	10	10	10	10	10	10	10	10	10	10	10	10	10	10	10	13	13	13	13	13	13	13	13	13	13	13	13	13	13	13	13	12	12	12	12	13	13	13	13	12	12	12	12	12	12	12	12	12	12	12	12	12	12	12	12	12	12	12	12	12	12	12	12	12	12	12	12	12	12	12	12	12	12	12	12	12	12	12	12	12	12	12	12	12	12	12	12	12	12	12	12	12	12	12	12	12	12	12	12	12	12	12	12	12	12	12	12	13	13	13	13	13	13	13	13	13	13	13	13	13	13	13	13	13	13	13	13	13	13	13	13	13	13	13	13	13	13	13	13	12	12	12	12	12	12	12	12	14	14	14	14	14	14	14	14	17	17	17	17	17	17	17	17	17	17	17	17	17	17	17	17	17	17	17	17	17	17	17	17	17	17	17	17	17	17	17	17	17	17	17	17	16	16	16	16	16	16	16	16	16	16	16	16	18	18	18	18	20	20	20	20	16	16	16	16	16	16	16	16	17	17	17	17	17	17	17	17	12	12	12	12	12	12	12	12	14	14	14	14	14	14	14	14	14	14	14	14	14	14	14	14	14	14	14	14	17	17	17	17	17	17	17	17	17	17	17	17	17	17	17	17	19	19	19	19	18	18	18	18	20	20	20	20	22	22	22	22	21	21	21	21	21	21	21	21	21	21	21	21	22	22	22	22	20	20	20	20	20	20	20	20	20	20	20	20
10	10	10	10	11	11	11	11	13	13	13	13	13	13	13	13	13	13	13	13	13	13	13	13	13	13	13	13	13	13	13	13	12	12	12	12	12	12	12	12	13	13	13	13	10	10	10	10	9	9	9	9	10	10	10	10	10	10	10	10	10	10	10	10	10	10	10	10	10	10	10	10	10	10	10	10	9	9	9	9	10	10	10	10	10	10	10	10	10	10	10	10	10	10	10	10	10	10	10	10	13	13	13	13	13	13	13	13	13	13	13	13	13	13	13	13	12	12	12	12	13	13	13	13	12	12	12	12	12	12	12	12	12	12	12	12	12	12	12	12	12	12	12	12	12	12	12	12	12	12	12	12	12	12	12	12	12	12	12	12	12	12	12	12	12	12	12	12	12	12	12	12	12	12	12	12	12	12	12	12	12	12	12	12	12	12	12	12	12	12	12	12	13	13	13	13	13	13	13	13	13	13	13	13	13	13	13	13	13	13	13	13	13	13	13	13	13	13	13	13	13	13	13	13	12	12	12	12	12	12	12	12	14	14	14	14	14	14	14	14	17	17	17	17	17	17	17	17	17	17	17	17	17	17	17	17	17	17	17	17	17	17	17	17	17	17	17	17	17	17	17	17	17	17	17	17	16	16	16	16	16	16	16	16	16	16	16	16	18	18	18	18	20	20	20	20	16	16	16	16	16	16	16	16	17	17	17	17	17	17	17	17	12	12	12	12	12	12	12	12	14	14	14	14	14	14	14	14	14	14	14	14	14	14	14	14	14	14	14	14	17	17	17	17	17	17	17	17	17	17	17	17	17	17	17	17	19	19	19	19	18	18	18	18	20	20	20	20	22	22	22	22	21	21	21	21	21	21	21	21	21	21	21	21	22	22	22	22	20	20	20	20	20	20	20	20	20	20	20	20
10	10	10	10	11	11	11	11	13	13	13	13	13	13	13	13	13	13	13	13	13	13	13	13	13	13	13	13	13	13	13	13	12	12	12	12	12	12	12	12	13	13	13	13	10	10	10	10	9	9	9	9	10	10	10	10	10	10	10	10	10	10	10	10	10	10	10	10	10	10	10	10	10	10	10	10	9	9	9	9	10	10	10	10	10	10	10	10	10	10	10	10	10	10	10	10	10	10	10	10	13	13	13	13	13	13	13	13	13	13	13	13	13	13	13	13	12	12	12	12	13	13	13	13	12	12	12	12	12	12	12	12	12	12	12	12	12	12	12	12	12	12	12	12	12	12	12	12	12	12	12	12	12	12	12	12	12	12	12	12	12	12	12	12	12	12	12	12	12	12	12	12	12	12	12	12	12	12	12	12	12	12	12	12	12	12	12	12	12	12	12	12	13	13	13	13	13	13	13	13	13	13	13	13	13	13	13	13	13	13	13	13	13	13	13	13	13	13	13	13	13	13	13	13	12	12	12	12	12	12	12	12	14	14	14	14	14	14	14	14	17	17	17	17	17	17	17	17	17	17	17	17	17	17	17	17	17	17	17	17	17	17	17	17	17	17	17	17	17	17	17	17	17	17	17	17	16	16	16	16	16	16	16	16	16	16	16	16	18	18	18	18	20	20	20	20	16	16	16	16	16	16	16	16	17	17	17	17	17	17	17	17	12	12	12	12	12	12	12	12	14	14	14	14	14	14	14	14	14	14	14	14	14	14	14	14	14	14	14	14	17	17	17	17	17	17	17	17	17	17	17	17	17	17	17	17	19	19	19	19	18	18	18	18	20	20	20	20	22	22	22	22	21	21	21	21	21	21	21	21	21	21	21	21	22	22	22	22	20	20	20	20	20	20	20	20	20	20	20	20
10	10	10	10	11	11	11	11	13	13	13	13	13	13	13	13	13	13	13	13	13	13	13	13	13	13	13	13	13	13	13	13	12	12	12	12	12	12	12	12	13	13	13	13	10	10	10	10	9	9	9	9	10	10	10	10	10	10	10	10	10	10	10	10	10	10	10	10	10	10	10	10	10	10	10	10	9	9	9	9	10	10	10	10	10	10	10	10	10	10	10	10	10	10	10	10	10	10	10	10	13	13	13	13	13	13	13	13	13	13	13	13	13	13	13	13	12	12	12	12	13	13	13	13	12	12	12	12	12	12	12	12	12	12	12	12	12	12	12	12	12	12	12	12	12	12	12	12	12	12	12	12	12	12	12	12	12	12	12	12	12	12	12	12	12	12	12	12	12	12	12	12	12	12	12	12	12	12	12	12	12	12	12	12	12	12	12	12	12	12	12	12	13	13	13	13	13	13	13	13	13	13	13	13	13	13	13	13	13	13	13	13	13	13	13	13	13	13	13	13	13	13	13	13	12	12	12	12	12	12	12	12	14	14	14	14	14	14	14	14	17	17	17	17	17	17	17	17	17	17	17	17	17	17	17	17	17	17	17	17	17	17	17	17	17	17	17	17	17	17	17	17	17	17	17	17	16	16	16	16	16	16	16	16	16	16	16	16	18	18	18	18	20	20	20	20	16	16	16	16	16	16	16	16	17	17	17	17	17	17	17	17	12	12	12	12	12	12	12	12	14	14	14	14	14	14	14	14	14	14	14	14	14	14	14	14	14	14	14	14	17	17	17	17	17	17	17	17	17	17	17	17	17	17	17	17	19	19	19	19	18	18	18	18	20	20	20	20	22	22	22	22	21	21	21	21	21	21	21	21	21	21	21	21	22	22	22	22	20	20	20	20	20	20	20	20	20	20	20	20
9	9	9	9	10	10	10	10	13	13	13	13	12	12	12	12	12	12	12	12	15	15	15	15	12	12	12	12	12	12	12	12	12	12	12	12	17	17	17	17	14	14	14	14	13	13	13	13	10	10	10	10	9	9	9	9	10	10	10	10	10	10	10	10	10	10	10	10	10	10	10	10	10	10	10	10	9	9	9	9	9	9	9	9	9	9	9	9	10	10	10	10	10	10	10	10	10	10	10	10	11	11	11	11	11	11	11	11	11	11	11	11	13	13	13	13	13	13	13	13	13	13	13	13	12	12	12	12	12	12	12	12	12	12	12	12	15	15	15	15	15	15	15	15	15	15	15	15	15	15	15	15	15	15	15	15	15	15	15	15	12	12	12	12	12	12	12	12	12	12	12	12	12	12	12	12	12	12	12	12	15	15	15	15	15	15	15	15	12	12	12	12	13	13	13	13	13	13	13	13	13	13	13	13	13	13	13	13	13	13	13	13	13	13	13	13	13	13	13	13	13	13	13	13	12	12	12	12	17	17	17	17	17	17	17	17	17	17	17	17	17	17	17	17	17	17	17	17	17	17	17	17	17	17	17	17	17	17	17	17	17	17	17	17	17	17	17	17	17	17	17	17	16	16	16	16	16	16	16	16	16	16	16	16	16	16	16	16	18	18	18	18	22	22	22	22	18	18	18	18	20	20	20	20	16	16	16	16	15	15	15	15	12	12	12	12	17	17	17	17	16	16	16	16	16	16	16	16	16	16	16	16	16	16	16	16	16	16	16	16	18	18	18	18	18	18	18	18	20	20	20	20	18	18	18	18	20	20	20	20	20	20	20	20	22	22	22	22	22	22	22	22	21	21	21	21	21	21	21	21	24	24	24	24	21	21	21	21	21	21	21	21	26	26	26	26	21	21	21	21
