ncols         400
nrows         59
xllcorner     3111250
yllcorner     2030000
cellsize      250
NODATA_value  -9999
131	131	136	136	136	136	140	140	140	140	145	145	145	145	142	142	142	142	140	140	140	140	140	140	140	140	145	145	145	145	146	146	146	146	152	152	152	152	152	152	152	152	146	146	146	146	147	147	147	147	150	150	150	150	157	157	157	157	156	156	156	156	156	156	156	156	152	152	152	152	146	146	146	146	147	147	147	147	146	146	146	146	147	147	147	147	148	148	148	148	146	146	146	146	147	147	147	147	148	148	148	148	148	148	148	148	148	148	148	148	143	143	143	143	142	142	142	142	143	143	143	143	143	143	143	143	144	144	144	144	144	144	144	144	148	148	148	148	146	146	146	146	144	144	144	144	139	139	139	139	139	139	139	139	144	144	144	144	143	143	143	143	142	142	142	142	139	139	139	139	139	139	139	139	145	145	145	145	138	138	138	138	129	129	129	129	134	134	134	134	134	134	134	134	129	129	129	129	131	131	131	131	131	131	131	131	135	135	135	135	140	140	140	140	134	134	134	134	140	140	140	140	129	129	129	129	140	140	140	140	140	140	140	140	140	140	140	140	137	137	137	137	136	136	136	136	137	137	137	137	137	137	137	137	136	136	136	136	136	136	136	136	132	132	132	132	131	131	131	131	130	130	130	130	133	133	133	133	131	131	131	131	136	136	136	136	131	131	131	131	128	128	128	128	133	133	133	133	130	130	130	130	130	130	130	130	131	131	131	131	131	131	131	131	135	135	135	135	137	137	137	137	134	134	134	134	145	145	145	145	142	142	142	142	143	143	143	143	143	143	143	143	143	143	143	143	145	145	145	145	145	145	145	145	142	142	142	142	139	139	139	139	141	141	141	141	141	141	141	141	139	139	139	139	145	145	145	145	143	143	143	143	144	144	144	144	144	144	144	144	142	142	142	142	145	145	145	145	138	138
131	131	135	135	135	135	136	136	136	136	137	137	137	137	140	140	140	140	136	136	136	136	134	134	134	134	142	142	142	142	153	153	153	153	149	149	149	149	148	148	148	148	144	144	144	144	153	153	153	153	154	154	154	154	156	156	156	156	152	152	152	152	152	152	152	152	153	153	153	153	149	149	149	149	148	148	148	148	147	147	147	147	148	148	148	148	144	144	144	144	148	148	148	148	148	148	148	148	144	144	144	144	148	148	148	148	148	148	148	148	143	143	143	143	143	143	143	143	145	145	145	145	143	143	143	143	144	144	144	144	144	144	144	144	144	144	144	144	144	144	144	144	143	143	143	143	139	139	139	139	138	138	138	138	139	139	139	139	139	139	139	139	145	145	145	145	134	134	134	134	140	140	140	140	134	134	134	134	140	140	140	140	135	135	135	135	136	136	136	136	137	137	137	137	135	135	135	135	131	131	131	131	130	130	130	130	136	136	136	136	140	140	140	140	140	140	140	140	140	140	140	140	136	136	136	136	137	137	137	137	140	140	140	140	137	137	137	137	129	129	129	129	135	135	135	135	136	136	136	136	129	129	129	129	135	135	135	135	135	135	135	135	135	135	135	135	131	131	131	131	131	131	131	131	133	133	133	133	130	130	130	130	131	131	131	131	128	128	128	128	128	128	128	128	133	133	133	133	130	130	130	130	130	130	130	130	131	131	131	131	131	131	131	131	135	135	135	135	137	137	137	137	138	138	138	138	145	145	145	145	142	142	142	142	143	143	143	143	143	143	143	143	143	143	143	143	145	145	145	145	141	141	141	141	139	139	139	139	138	138	138	138	134	134	134	134	138	138	138	138	141	141	141	141	143	143	143	143	144	144	144	144	148	148	148	148	144	144	144	144	143	143	143	143	142	142	142	142	141	141
131	131	135	135	135	135	136	136	136	136	137	137	137	137	140	140	140	140	136	136	136	136	134	134	134	134	142	142	142	142	153	153	153	153	149	149	149	149	148	148	148	148	144	144	144	144	153	153	153	153	154	154	154	154	156	156	156	156	152	152	152	152	152	152	152	152	153	153	153	153	149	149	149	149	148	148	148	148	147	147	147	147	148	148	148	148	144	144	144	144	148	148	148	148	148	148	148	148	144	144	144	144	148	148	148	148	148	148	148	148	143	143	143	143	143	143	143	143	145	145	145	145	143	143	143	143	144	144	144	144	144	144	144	144	144	144	144	144	144	144	144	144	143	143	143	143	139	139	139	139	138	138	138	138	139	139	139	139	139	139	139	139	145	145	145	145	134	134	134	134	140	140	140	140	134	134	134	134	140	140	140	140	135	135	135	135	136	136	136	136	137	137	137	137	135	135	135	135	131	131	131	131	130	130	130	130	136	136	136	136	140	140	140	140	140	140	140	140	140	140	140	140	136	136	136	136	137	137	137	137	140	140	140	140	137	137	137	137	129	129	129	129	135	135	135	135	136	136	136	136	129	129	129	129	135	135	135	135	135	135	135	135	135	135	135	135	131	131	131	131	131	131	131	131	133	133	133	133	130	130	130	130	131	131	131	131	128	128	128	128	128	128	128	128	133	133	133	133	130	130	130	130	130	130	130	130	131	131	131	131	131	131	131	131	135	135	135	135	137	137	137	137	138	138	138	138	145	145	145	145	142	142	142	142	143	143	143	143	143	143	143	143	143	143	143	143	145	145	145	145	141	141	141	141	139	139	139	139	138	138	138	138	134	134	134	134	138	138	138	138	141	141	141	141	143	143	143	143	144	144	144	144	148	148	148	148	144	144	144	144	143	143	143	143	142	142	142	142	141	141
131	131	135	135	135	135	136	136	136	136	137	137	137	137	140	140	140	140	136	136	136	136	134	134	134	134	142	142	142	142	153	153	153	153	149	149	149	149	148	148	148	148	144	144	144	144	153	153	153	153	154	154	154	154	156	156	156	156	152	152	152	152	152	152	152	152	153	153	153	153	149	149	149	149	148	148	148	148	147	147	147	147	148	148	148	148	144	144	144	144	148	148	148	148	148	148	148	148	144	144	144	144	148	148	148	148	148	148	148	148	143	143	143	143	143	143	143	143	145	145	145	145	143	143	143	143	144	144	144	144	144	144	144	144	144	144	144	144	144	144	144	144	143	143	143	143	139	139	139	139	138	138	138	138	139	139	139	139	139	139	139	139	145	145	145	145	134	134	134	134	140	140	140	140	134	134	134	134	140	140	140	140	135	135	135	135	136	136	136	136	137	137	137	137	135	135	135	135	131	131	131	131	130	130	130	130	136	136	136	136	140	140	140	140	140	140	140	140	140	140	140	140	136	136	136	136	137	137	137	137	140	140	140	140	137	137	137	137	129	129	129	129	135	135	135	135	136	136	136	136	129	129	129	129	135	135	135	135	135	135	135	135	135	135	135	135	131	131	131	131	131	131	131	131	133	133	133	133	130	130	130	130	131	131	131	131	128	128	128	128	128	128	128	128	133	133	133	133	130	130	130	130	130	130	130	130	131	131	131	131	131	131	131	131	135	135	135	135	137	137	137	137	138	138	138	138	145	145	145	145	142	142	142	142	143	143	143	143	143	143	143	143	143	143	143	143	145	145	145	145	141	141	141	141	139	139	139	139	138	138	138	138	134	134	134	134	138	138	138	138	141	141	141	141	143	143	143	143	144	144	144	144	148	148	148	148	144	144	144	144	143	143	143	143	142	142	142	142	141	141
131	131	135	135	135	135	136	136	136	136	137	137	137	137	140	140	140	140	136	136	136	136	134	134	134	134	142	142	142	142	153	153	153	153	149	149	149	149	148	148	148	148	144	144	144	144	153	153	153	153	154	154	154	154	156	156	156	156	152	152	152	152	152	152	152	152	153	153	153	153	149	149	149	149	148	148	148	148	147	147	147	147	148	148	148	148	144	144	144	144	148	148	148	148	148	148	148	148	144	144	144	144	148	148	148	148	148	148	148	148	143	143	143	143	143	143	143	143	145	145	145	145	143	143	143	143	144	144	144	144	144	144	144	144	144	144	144	144	144	144	144	144	143	143	143	143	139	139	139	139	138	138	138	138	139	139	139	139	139	139	139	139	145	145	145	145	134	134	134	134	140	140	140	140	134	134	134	134	140	140	140	140	135	135	135	135	136	136	136	136	137	137	137	137	135	135	135	135	131	131	131	131	130	130	130	130	136	136	136	136	140	140	140	140	140	140	140	140	140	140	140	140	136	136	136	136	137	137	137	137	140	140	140	140	137	137	137	137	129	129	129	129	135	135	135	135	136	136	136	136	129	129	129	129	135	135	135	135	135	135	135	135	135	135	135	135	131	131	131	131	131	131	131	131	133	133	133	133	130	130	130	130	131	131	131	131	128	128	128	128	128	128	128	128	133	133	133	133	130	130	130	130	130	130	130	130	131	131	131	131	131	131	131	131	135	135	135	135	137	137	137	137	138	138	138	138	145	145	145	145	142	142	142	142	143	143	143	143	143	143	143	143	143	143	143	143	145	145	145	145	141	141	141	141	139	139	139	139	138	138	138	138	134	134	134	134	138	138	138	138	141	141	141	141	143	143	143	143	144	144	144	144	148	148	148	148	144	144	144	144	143	143	143	143	142	142	142	142	141	141
131	131	131	131	131	131	131	131	131	131	135	135	135	135	135	135	135	135	136	136	136	136	137	137	137	137	139	139	139	139	142	142	142	142	144	144	144	144	144	144	144	144	153	153	153	153	156	156	156	156	150	150	150	150	148	148	148	148	146	146	146	146	148	148	148	148	146	146	146	146	146	146	146	146	146	146	146	146	144	144	144	144	144	144	144	144	142	142	142	142	143	143	143	143	144	144	144	144	144	144	144	144	144	144	144	144	148	148	148	148	144	144	144	144	144	144	144	144	145	145	145	145	145	145	145	145	143	143	143	143	142	142	142	142	144	144	144	144	145	145	145	145	134	134	134	134	136	136	136	136	129	129	129	129	129	129	129	129	140	140	140	140	138	138	138	138	138	138	138	138	137	137	137	137	137	137	137	137	137	137	137	137	132	132	132	132	131	131	131	131	135	135	135	135	132	132	132	132	130	130	130	130	130	130	130	130	129	129	129	129	140	140	140	140	129	129	129	129	136	136	136	136	132	132	132	132	140	140	140	140	140	140	140	140	137	137	137	137	136	136	136	136	135	135	135	135	132	132	132	132	135	135	135	135	132	132	132	132	135	135	135	135	135	135	135	135	131	131	131	131	130	130	130	130	128	128	128	128	131	131	131	131	130	130	130	130	128	128	128	128	128	128	128	128	133	133	133	133	130	130	130	130	130	130	130	130	131	131	131	131	131	131	131	131	136	136	136	136	140	140	140	140	138	138	138	138	141	141	141	141	143	143	143	143	143	143	143	143	143	143	143	143	142	142	142	142	145	145	145	145	138	138	138	138	138	138	138	138	140	140	140	140	140	140	140	140	138	138	138	138	139	139	139	139	143	143	143	143	148	148	148	148	144	144	144	144	144	144	144	144	143	143	143	143	143	143	143	143	145	145
131	131	131	131	131	131	131	131	131	131	135	135	135	135	135	135	135	135	136	136	136	136	137	137	137	137	139	139	139	139	142	142	142	142	144	144	144	144	144	144	144	144	153	153	153	153	156	156	156	156	150	150	150	150	148	148	148	148	146	146	146	146	148	148	148	148	146	146	146	146	146	146	146	146	146	146	146	146	144	144	144	144	144	144	144	144	142	142	142	142	143	143	143	143	144	144	144	144	144	144	144	144	144	144	144	144	148	148	148	148	144	144	144	144	144	144	144	144	145	145	145	145	145	145	145	145	143	143	143	143	142	142	142	142	144	144	144	144	145	145	145	145	134	134	134	134	136	136	136	136	129	129	129	129	129	129	129	129	140	140	140	140	138	138	138	138	138	138	138	138	137	137	137	137	137	137	137	137	137	137	137	137	132	132	132	132	131	131	131	131	135	135	135	135	132	132	132	132	130	130	130	130	130	130	130	130	129	129	129	129	140	140	140	140	129	129	129	129	136	136	136	136	132	132	132	132	140	140	140	140	140	140	140	140	137	137	137	137	136	136	136	136	135	135	135	135	132	132	132	132	135	135	135	135	132	132	132	132	135	135	135	135	135	135	135	135	131	131	131	131	130	130	130	130	128	128	128	128	131	131	131	131	130	130	130	130	128	128	128	128	128	128	128	128	133	133	133	133	130	130	130	130	130	130	130	130	131	131	131	131	131	131	131	131	136	136	136	136	140	140	140	140	138	138	138	138	141	141	141	141	143	143	143	143	143	143	143	143	143	143	143	143	142	142	142	142	145	145	145	145	138	138	138	138	138	138	138	138	140	140	140	140	140	140	140	140	138	138	138	138	139	139	139	139	143	143	143	143	148	148	148	148	144	144	144	144	144	144	144	144	143	143	143	143	143	143	143	143	145	145
131	131	131	131	131	131	131	131	131	131	135	135	135	135	135	135	135	135	136	136	136	136	137	137	137	137	139	139	139	139	142	142	142	142	144	144	144	144	144	144	144	144	153	153	153	153	156	156	156	156	150	150	150	150	148	148	148	148	146	146	146	146	148	148	148	148	146	146	146	146	146	146	146	146	146	146	146	146	144	144	144	144	144	144	144	144	142	142	142	142	143	143	143	143	144	144	144	144	144	144	144	144	144	144	144	144	148	148	148	148	144	144	144	144	144	144	144	144	145	145	145	145	145	145	145	145	143	143	143	143	142	142	142	142	144	144	144	144	145	145	145	145	134	134	134	134	136	136	136	136	129	129	129	129	129	129	129	129	140	140	140	140	138	138	138	138	138	138	138	138	137	137	137	137	137	137	137	137	137	137	137	137	132	132	132	132	131	131	131	131	135	135	135	135	132	132	132	132	130	130	130	130	130	130	130	130	129	129	129	129	140	140	140	140	129	129	129	129	136	136	136	136	132	132	132	132	140	140	140	140	140	140	140	140	137	137	137	137	136	136	136	136	135	135	135	135	132	132	132	132	135	135	135	135	132	132	132	132	135	135	135	135	135	135	135	135	131	131	131	131	130	130	130	130	128	128	128	128	131	131	131	131	130	130	130	130	128	128	128	128	128	128	128	128	133	133	133	133	130	130	130	130	130	130	130	130	131	131	131	131	131	131	131	131	136	136	136	136	140	140	140	140	138	138	138	138	141	141	141	141	143	143	143	143	143	143	143	143	143	143	143	143	142	142	142	142	145	145	145	145	138	138	138	138	138	138	138	138	140	140	140	140	140	140	140	140	138	138	138	138	139	139	139	139	143	143	143	143	148	148	148	148	144	144	144	144	144	144	144	144	143	143	143	143	143	143	143	143	145	145
131	131	131	131	131	131	131	131	131	131	135	135	135	135	135	135	135	135	136	136	136	136	137	137	137	137	139	139	139	139	142	142	142	142	144	144	144	144	144	144	144	144	153	153	153	153	156	156	156	156	150	150	150	150	148	148	148	148	146	146	146	146	148	148	148	148	146	146	146	146	146	146	146	146	146	146	146	146	144	144	144	144	144	144	144	144	142	142	142	142	143	143	143	143	144	144	144	144	144	144	144	144	144	144	144	144	148	148	148	148	144	144	144	144	144	144	144	144	145	145	145	145	145	145	145	145	143	143	143	143	142	142	142	142	144	144	144	144	145	145	145	145	134	134	134	134	136	136	136	136	129	129	129	129	129	129	129	129	140	140	140	140	138	138	138	138	138	138	138	138	137	137	137	137	137	137	137	137	137	137	137	137	132	132	132	132	131	131	131	131	135	135	135	135	132	132	132	132	130	130	130	130	130	130	130	130	129	129	129	129	140	140	140	140	129	129	129	129	136	136	136	136	132	132	132	132	140	140	140	140	140	140	140	140	137	137	137	137	136	136	136	136	135	135	135	135	132	132	132	132	135	135	135	135	132	132	132	132	135	135	135	135	135	135	135	135	131	131	131	131	130	130	130	130	128	128	128	128	131	131	131	131	130	130	130	130	128	128	128	128	128	128	128	128	133	133	133	133	130	130	130	130	130	130	130	130	131	131	131	131	131	131	131	131	136	136	136	136	140	140	140	140	138	138	138	138	141	141	141	141	143	143	143	143	143	143	143	143	143	143	143	143	142	142	142	142	145	145	145	145	138	138	138	138	138	138	138	138	140	140	140	140	140	140	140	140	138	138	138	138	139	139	139	139	143	143	143	143	148	148	148	148	144	144	144	144	144	144	144	144	143	143	143	143	143	143	143	143	145	145
137	137	132	132	132	132	131	131	131	131	129	129	129	129	145	145	145	145	138	138	138	138	141	141	141	141	145	145	145	145	153	153	153	153	153	153	153	153	156	156	156	156	149	149	149	149	144	144	144	144	144	144	144	144	144	144	144	144	144	144	144	144	144	144	144	144	148	148	148	148	146	146	146	146	146	146	146	146	144	144	144	144	143	143	143	143	141	141	141	141	139	139	139	139	142	142	142	142	145	145	145	145	142	142	142	142	144	144	144	144	144	144	144	144	144	144	144	144	145	145	145	145	145	145	145	145	142	142	142	142	139	139	139	139	141	141	141	141	140	140	140	140	136	136	136	136	131	131	131	131	131	131	131	131	132	132	132	132	129	129	129	129	140	140	140	140	134	134	134	134	140	140	140	140	129	129	129	129	137	137	137	137	135	135	135	135	131	131	131	131	131	131	131	131	131	131	131	131	130	130	130	130	130	130	130	130	129	129	129	129	129	129	129	129	136	136	136	136	132	132	132	132	135	135	135	135	140	140	140	140	134	134	134	134	140	140	140	140	137	137	137	137	136	136	136	136	132	132	132	132	132	132	132	132	131	131	131	131	136	136	136	136	136	136	136	136	132	132	132	132	130	130	130	130	128	128	128	128	128	128	128	128	128	128	128	128	128	128	128	128	128	128	128	128	133	133	133	133	130	130	130	130	130	130	130	130	131	131	131	131	132	132	132	132	136	136	136	136	140	140	140	140	140	140	140	140	138	138	138	138	145	145	145	145	142	142	142	142	145	145	145	145	139	139	139	139	139	139	139	139	138	138	138	138	140	140	140	140	140	140	140	140	140	140	140	140	138	138	138	138	139	139	139	139	143	143	143	143	144	144	144	144	144	144	144	144	143	143	143	143	143	143	143	143	145	145	145	145	145	145
137	137	132	132	132	132	131	131	131	131	129	129	129	129	145	145	145	145	138	138	138	138	141	141	141	141	145	145	145	145	153	153	153	153	153	153	153	153	156	156	156	156	149	149	149	149	144	144	144	144	144	144	144	144	144	144	144	144	144	144	144	144	144	144	144	144	148	148	148	148	146	146	146	146	146	146	146	146	144	144	144	144	143	143	143	143	141	141	141	141	139	139	139	139	142	142	142	142	145	145	145	145	142	142	142	142	144	144	144	144	144	144	144	144	144	144	144	144	145	145	145	145	145	145	145	145	142	142	142	142	139	139	139	139	141	141	141	141	140	140	140	140	136	136	136	136	131	131	131	131	131	131	131	131	132	132	132	132	129	129	129	129	140	140	140	140	134	134	134	134	140	140	140	140	129	129	129	129	137	137	137	137	135	135	135	135	131	131	131	131	131	131	131	131	131	131	131	131	130	130	130	130	130	130	130	130	129	129	129	129	129	129	129	129	136	136	136	136	132	132	132	132	135	135	135	135	140	140	140	140	134	134	134	134	140	140	140	140	137	137	137	137	136	136	136	136	132	132	132	132	132	132	132	132	131	131	131	131	136	136	136	136	136	136	136	136	132	132	132	132	130	130	130	130	128	128	128	128	128	128	128	128	128	128	128	128	128	128	128	128	128	128	128	128	133	133	133	133	130	130	130	130	130	130	130	130	131	131	131	131	132	132	132	132	136	136	136	136	140	140	140	140	140	140	140	140	138	138	138	138	145	145	145	145	142	142	142	142	145	145	145	145	139	139	139	139	139	139	139	139	138	138	138	138	140	140	140	140	140	140	140	140	140	140	140	140	138	138	138	138	139	139	139	139	143	143	143	143	144	144	144	144	144	144	144	144	143	143	143	143	143	143	143	143	145	145	145	145	145	145
137	137	132	132	132	132	131	131	131	131	129	129	129	129	145	145	145	145	138	138	138	138	141	141	141	141	145	145	145	145	153	153	153	153	153	153	153	153	156	156	156	156	149	149	149	149	144	144	144	144	144	144	144	144	144	144	144	144	144	144	144	144	144	144	144	144	148	148	148	148	146	146	146	146	146	146	146	146	144	144	144	144	143	143	143	143	141	141	141	141	139	139	139	139	142	142	142	142	145	145	145	145	142	142	142	142	144	144	144	144	144	144	144	144	144	144	144	144	145	145	145	145	145	145	145	145	142	142	142	142	139	139	139	139	141	141	141	141	140	140	140	140	136	136	136	136	131	131	131	131	131	131	131	131	132	132	132	132	129	129	129	129	140	140	140	140	134	134	134	134	140	140	140	140	129	129	129	129	137	137	137	137	135	135	135	135	131	131	131	131	131	131	131	131	131	131	131	131	130	130	130	130	130	130	130	130	129	129	129	129	129	129	129	129	136	136	136	136	132	132	132	132	135	135	135	135	140	140	140	140	134	134	134	134	140	140	140	140	137	137	137	137	136	136	136	136	132	132	132	132	132	132	132	132	131	131	131	131	136	136	136	136	136	136	136	136	132	132	132	132	130	130	130	130	128	128	128	128	128	128	128	128	128	128	128	128	128	128	128	128	128	128	128	128	133	133	133	133	130	130	130	130	130	130	130	130	131	131	131	131	132	132	132	132	136	136	136	136	140	140	140	140	140	140	140	140	138	138	138	138	145	145	145	145	142	142	142	142	145	145	145	145	139	139	139	139	139	139	139	139	138	138	138	138	140	140	140	140	140	140	140	140	140	140	140	140	138	138	138	138	139	139	139	139	143	143	143	143	144	144	144	144	144	144	144	144	143	143	143	143	143	143	143	143	145	145	145	145	145	145
137	137	132	132	132	132	131	131	131	131	129	129	129	129	145	145	145	145	138	138	138	138	141	141	141	141	145	145	145	145	153	153	153	153	153	153	153	153	156	156	156	156	149	149	149	149	144	144	144	144	144	144	144	144	144	144	144	144	144	144	144	144	144	144	144	144	148	148	148	148	146	146	146	146	146	146	146	146	144	144	144	144	143	143	143	143	141	141	141	141	139	139	139	139	142	142	142	142	145	145	145	145	142	142	142	142	144	144	144	144	144	144	144	144	144	144	144	144	145	145	145	145	145	145	145	145	142	142	142	142	139	139	139	139	141	141	141	141	140	140	140	140	136	136	136	136	131	131	131	131	131	131	131	131	132	132	132	132	129	129	129	129	140	140	140	140	134	134	134	134	140	140	140	140	129	129	129	129	137	137	137	137	135	135	135	135	131	131	131	131	131	131	131	131	131	131	131	131	130	130	130	130	130	130	130	130	129	129	129	129	129	129	129	129	136	136	136	136	132	132	132	132	135	135	135	135	140	140	140	140	134	134	134	134	140	140	140	140	137	137	137	137	136	136	136	136	132	132	132	132	132	132	132	132	131	131	131	131	136	136	136	136	136	136	136	136	132	132	132	132	130	130	130	130	128	128	128	128	128	128	128	128	128	128	128	128	128	128	128	128	128	128	128	128	133	133	133	133	130	130	130	130	130	130	130	130	131	131	131	131	132	132	132	132	136	136	136	136	140	140	140	140	140	140	140	140	138	138	138	138	145	145	145	145	142	142	142	142	145	145	145	145	139	139	139	139	139	139	139	139	138	138	138	138	140	140	140	140	140	140	140	140	140	140	140	140	138	138	138	138	139	139	139	139	143	143	143	143	144	144	144	144	144	144	144	144	143	143	143	143	143	143	143	143	145	145	145	145	145	145
140	140	129	129	129	129	130	130	130	130	140	140	140	140	138	138	138	138	140	140	140	140	145	145	145	145	146	146	146	146	151	151	151	151	149	149	149	149	156	156	156	156	143	143	143	143	141	141	141	141	145	145	145	145	148	148	148	148	144	144	144	144	143	143	143	143	142	142	142	142	144	144	144	144	148	148	148	148	144	144	144	144	139	139	139	139	140	140	140	140	134	134	134	134	138	138	138	138	139	139	139	139	145	145	145	145	143	143	143	143	144	144	144	144	143	143	143	143	139	139	139	139	145	145	145	145	134	134	134	134	137	137	137	137	129	129	129	129	135	135	135	135	132	132	132	132	130	130	130	130	130	130	130	130	131	131	131	131	136	136	136	136	140	140	140	140	140	140	140	140	137	137	137	137	136	136	136	136	140	140	140	140	129	129	129	129	135	135	135	135	131	131	131	131	130	130	130	130	133	133	133	133	130	130	130	130	135	135	135	135	135	135	135	135	131	131	131	131	132	132	132	132	129	129	129	129	140	140	140	140	134	134	134	134	140	140	140	140	137	137	137	137	129	129	129	129	135	135	135	135	131	131	131	131	130	130	130	130	132	132	132	132	136	136	136	136	132	132	132	132	130	130	130	130	128	128	128	128	128	128	128	128	128	128	128	128	128	128	128	128	128	128	128	128	130	130	130	130	130	130	130	130	130	130	130	130	131	131	131	131	132	132	132	132	129	129	129	129	137	137	137	137	140	140	140	140	138	138	138	138	139	139	139	139	145	145	145	145	141	141	141	141	138	138	138	138	134	134	134	134	140	140	140	140	137	137	137	137	140	140	140	140	134	134	134	134	139	139	139	139	143	143	143	143	144	144	144	144	143	143	143	143	143	143	143	143	143	143	143	143	142	142	142	142	145	145	145	145	141	141
140	140	129	129	129	129	130	130	130	130	140	140	140	140	138	138	138	138	140	140	140	140	145	145	145	145	146	146	146	146	151	151	151	151	149	149	149	149	156	156	156	156	143	143	143	143	141	141	141	141	145	145	145	145	148	148	148	148	144	144	144	144	143	143	143	143	142	142	142	142	144	144	144	144	148	148	148	148	144	144	144	144	139	139	139	139	140	140	140	140	134	134	134	134	138	138	138	138	139	139	139	139	145	145	145	145	143	143	143	143	144	144	144	144	143	143	143	143	139	139	139	139	145	145	145	145	134	134	134	134	137	137	137	137	129	129	129	129	135	135	135	135	132	132	132	132	130	130	130	130	130	130	130	130	131	131	131	131	136	136	136	136	140	140	140	140	140	140	140	140	137	137	137	137	136	136	136	136	140	140	140	140	129	129	129	129	135	135	135	135	131	131	131	131	130	130	130	130	133	133	133	133	130	130	130	130	135	135	135	135	135	135	135	135	131	131	131	131	132	132	132	132	129	129	129	129	140	140	140	140	134	134	134	134	140	140	140	140	137	137	137	137	129	129	129	129	135	135	135	135	131	131	131	131	130	130	130	130	132	132	132	132	136	136	136	136	132	132	132	132	130	130	130	130	128	128	128	128	128	128	128	128	128	128	128	128	128	128	128	128	128	128	128	128	130	130	130	130	130	130	130	130	130	130	130	130	131	131	131	131	132	132	132	132	129	129	129	129	137	137	137	137	140	140	140	140	138	138	138	138	139	139	139	139	145	145	145	145	141	141	141	141	138	138	138	138	134	134	134	134	140	140	140	140	137	137	137	137	140	140	140	140	134	134	134	134	139	139	139	139	143	143	143	143	144	144	144	144	143	143	143	143	143	143	143	143	143	143	143	143	142	142	142	142	145	145	145	145	141	141
140	140	129	129	129	129	130	130	130	130	140	140	140	140	138	138	138	138	140	140	140	140	145	145	145	145	146	146	146	146	151	151	151	151	149	149	149	149	156	156	156	156	143	143	143	143	141	141	141	141	145	145	145	145	148	148	148	148	144	144	144	144	143	143	143	143	142	142	142	142	144	144	144	144	148	148	148	148	144	144	144	144	139	139	139	139	140	140	140	140	134	134	134	134	138	138	138	138	139	139	139	139	145	145	145	145	143	143	143	143	144	144	144	144	143	143	143	143	139	139	139	139	145	145	145	145	134	134	134	134	137	137	137	137	129	129	129	129	135	135	135	135	132	132	132	132	130	130	130	130	130	130	130	130	131	131	131	131	136	136	136	136	140	140	140	140	140	140	140	140	137	137	137	137	136	136	136	136	140	140	140	140	129	129	129	129	135	135	135	135	131	131	131	131	130	130	130	130	133	133	133	133	130	130	130	130	135	135	135	135	135	135	135	135	131	131	131	131	132	132	132	132	129	129	129	129	140	140	140	140	134	134	134	134	140	140	140	140	137	137	137	137	129	129	129	129	135	135	135	135	131	131	131	131	130	130	130	130	132	132	132	132	136	136	136	136	132	132	132	132	130	130	130	130	128	128	128	128	128	128	128	128	128	128	128	128	128	128	128	128	128	128	128	128	130	130	130	130	130	130	130	130	130	130	130	130	131	131	131	131	132	132	132	132	129	129	129	129	137	137	137	137	140	140	140	140	138	138	138	138	139	139	139	139	145	145	145	145	141	141	141	141	138	138	138	138	134	134	134	134	140	140	140	140	137	137	137	137	140	140	140	140	134	134	134	134	139	139	139	139	143	143	143	143	144	144	144	144	143	143	143	143	143	143	143	143	143	143	143	143	142	142	142	142	145	145	145	145	141	141
140	140	129	129	129	129	130	130	130	130	140	140	140	140	138	138	138	138	140	140	140	140	145	145	145	145	146	146	146	146	151	151	151	151	149	149	149	149	156	156	156	156	143	143	143	143	141	141	141	141	145	145	145	145	148	148	148	148	144	144	144	144	143	143	143	143	142	142	142	142	144	144	144	144	148	148	148	148	144	144	144	144	139	139	139	139	140	140	140	140	134	134	134	134	138	138	138	138	139	139	139	139	145	145	145	145	143	143	143	143	144	144	144	144	143	143	143	143	139	139	139	139	145	145	145	145	134	134	134	134	137	137	137	137	129	129	129	129	135	135	135	135	132	132	132	132	130	130	130	130	130	130	130	130	131	131	131	131	136	136	136	136	140	140	140	140	140	140	140	140	137	137	137	137	136	136	136	136	140	140	140	140	129	129	129	129	135	135	135	135	131	131	131	131	130	130	130	130	133	133	133	133	130	130	130	130	135	135	135	135	135	135	135	135	131	131	131	131	132	132	132	132	129	129	129	129	140	140	140	140	134	134	134	134	140	140	140	140	137	137	137	137	129	129	129	129	135	135	135	135	131	131	131	131	130	130	130	130	132	132	132	132	136	136	136	136	132	132	132	132	130	130	130	130	128	128	128	128	128	128	128	128	128	128	128	128	128	128	128	128	128	128	128	128	130	130	130	130	130	130	130	130	130	130	130	130	131	131	131	131	132	132	132	132	129	129	129	129	137	137	137	137	140	140	140	140	138	138	138	138	139	139	139	139	145	145	145	145	141	141	141	141	138	138	138	138	134	134	134	134	140	140	140	140	137	137	137	137	140	140	140	140	134	134	134	134	139	139	139	139	143	143	143	143	144	144	144	144	143	143	143	143	143	143	143	143	143	143	143	143	142	142	142	142	145	145	145	145	141	141
139	139	139	139	139	139	135	135	135	135	133	133	133	133	131	131	131	131	129	129	129	129	145	145	145	145	153	153	153	153	152	152	152	152	146	146	146	146	144	144	144	144	141	141	141	141	134	134	134	134	145	145	145	145	144	144	144	144	143	143	143	143	145	145	145	145	145	145	145	145	143	143	143	143	144	144	144	144	143	143	143	143	141	141	141	141	137	137	137	137	137	137	137	137	134	134	134	134	139	139	139	139	145	145	145	145	143	143	143	143	142	142	142	142	138	138	138	138	137	137	137	137	137	137	137	137	135	135	135	135	132	132	132	132	132	132	132	132	131	131	131	131	131	131	131	131	130	130	130	130	130	130	130	130	131	131	131	131	135	135	135	135	137	137	137	137	140	140	140	140	129	129	129	129	132	132	132	132	137	137	137	137	140	140	140	140	136	136	136	136	132	132	132	132	131	131	131	131	133	133	133	133	130	130	130	130	131	131	131	131	131	131	131	131	135	135	135	135	137	137	137	137	140	140	140	140	140	140	140	140	134	134	134	134	140	140	140	140	137	137	137	137	129	129	129	129	132	132	132	132	132	132	132	132	130	130	130	130	130	130	130	130	135	135	135	135	131	131	131	131	130	130	130	130	128	128	128	128	128	128	128	128	128	128	128	128	128	128	128	128	133	133	133	133	130	130	130	130	130	130	130	130	131	131	131	131	135	135	135	135	135	135	135	135	129	129	129	129	129	129	129	129	140	140	140	140	134	134	134	134	139	139	139	139	138	138	138	138	134	134	134	134	140	140	140	140	137	137	137	137	129	129	129	129	137	137	137	137	140	140	140	140	141	141	141	141	142	142	142	142	143	143	143	143	143	143	143	143	143	143	143	143	143	143	143	143	142	142	142	142	145	145	145	145	139	139	139	139	138	138
139	139	139	139	139	139	135	135	135	135	133	133	133	133	131	131	131	131	129	129	129	129	145	145	145	145	153	153	153	153	152	152	152	152	146	146	146	146	144	144	144	144	141	141	141	141	134	134	134	134	145	145	145	145	144	144	144	144	143	143	143	143	145	145	145	145	145	145	145	145	143	143	143	143	144	144	144	144	143	143	143	143	141	141	141	141	137	137	137	137	137	137	137	137	134	134	134	134	139	139	139	139	145	145	145	145	143	143	143	143	142	142	142	142	138	138	138	138	137	137	137	137	137	137	137	137	135	135	135	135	132	132	132	132	132	132	132	132	131	131	131	131	131	131	131	131	130	130	130	130	130	130	130	130	131	131	131	131	135	135	135	135	137	137	137	137	140	140	140	140	129	129	129	129	132	132	132	132	137	137	137	137	140	140	140	140	136	136	136	136	132	132	132	132	131	131	131	131	133	133	133	133	130	130	130	130	131	131	131	131	131	131	131	131	135	135	135	135	137	137	137	137	140	140	140	140	140	140	140	140	134	134	134	134	140	140	140	140	137	137	137	137	129	129	129	129	132	132	132	132	132	132	132	132	130	130	130	130	130	130	130	130	135	135	135	135	131	131	131	131	130	130	130	130	128	128	128	128	128	128	128	128	128	128	128	128	128	128	128	128	133	133	133	133	130	130	130	130	130	130	130	130	131	131	131	131	135	135	135	135	135	135	135	135	129	129	129	129	129	129	129	129	140	140	140	140	134	134	134	134	139	139	139	139	138	138	138	138	134	134	134	134	140	140	140	140	137	137	137	137	129	129	129	129	137	137	137	137	140	140	140	140	141	141	141	141	142	142	142	142	143	143	143	143	143	143	143	143	143	143	143	143	143	143	143	143	142	142	142	142	145	145	145	145	139	139	139	139	138	138
139	139	139	139	139	139	135	135	135	135	133	133	133	133	131	131	131	131	129	129	129	129	145	145	145	145	153	153	153	153	152	152	152	152	146	146	146	146	144	144	144	144	141	141	141	141	134	134	134	134	145	145	145	145	144	144	144	144	143	143	143	143	145	145	145	145	145	145	145	145	143	143	143	143	144	144	144	144	143	143	143	143	141	141	141	141	137	137	137	137	137	137	137	137	134	134	134	134	139	139	139	139	145	145	145	145	143	143	143	143	142	142	142	142	138	138	138	138	137	137	137	137	137	137	137	137	135	135	135	135	132	132	132	132	132	132	132	132	131	131	131	131	131	131	131	131	130	130	130	130	130	130	130	130	131	131	131	131	135	135	135	135	137	137	137	137	140	140	140	140	129	129	129	129	132	132	132	132	137	137	137	137	140	140	140	140	136	136	136	136	132	132	132	132	131	131	131	131	133	133	133	133	130	130	130	130	131	131	131	131	131	131	131	131	135	135	135	135	137	137	137	137	140	140	140	140	140	140	140	140	134	134	134	134	140	140	140	140	137	137	137	137	129	129	129	129	132	132	132	132	132	132	132	132	130	130	130	130	130	130	130	130	135	135	135	135	131	131	131	131	130	130	130	130	128	128	128	128	128	128	128	128	128	128	128	128	128	128	128	128	133	133	133	133	130	130	130	130	130	130	130	130	131	131	131	131	135	135	135	135	135	135	135	135	129	129	129	129	129	129	129	129	140	140	140	140	134	134	134	134	139	139	139	139	138	138	138	138	134	134	134	134	140	140	140	140	137	137	137	137	129	129	129	129	137	137	137	137	140	140	140	140	141	141	141	141	142	142	142	142	143	143	143	143	143	143	143	143	143	143	143	143	143	143	143	143	142	142	142	142	145	145	145	145	139	139	139	139	138	138
139	139	139	139	139	139	135	135	135	135	133	133	133	133	131	131	131	131	129	129	129	129	145	145	145	145	153	153	153	153	152	152	152	152	146	146	146	146	144	144	144	144	141	141	141	141	134	134	134	134	145	145	145	145	144	144	144	144	143	143	143	143	145	145	145	145	145	145	145	145	143	143	143	143	144	144	144	144	143	143	143	143	141	141	141	141	137	137	137	137	137	137	137	137	134	134	134	134	139	139	139	139	145	145	145	145	143	143	143	143	142	142	142	142	138	138	138	138	137	137	137	137	137	137	137	137	135	135	135	135	132	132	132	132	132	132	132	132	131	131	131	131	131	131	131	131	130	130	130	130	130	130	130	130	131	131	131	131	135	135	135	135	137	137	137	137	140	140	140	140	129	129	129	129	132	132	132	132	137	137	137	137	140	140	140	140	136	136	136	136	132	132	132	132	131	131	131	131	133	133	133	133	130	130	130	130	131	131	131	131	131	131	131	131	135	135	135	135	137	137	137	137	140	140	140	140	140	140	140	140	134	134	134	134	140	140	140	140	137	137	137	137	129	129	129	129	132	132	132	132	132	132	132	132	130	130	130	130	130	130	130	130	135	135	135	135	131	131	131	131	130	130	130	130	128	128	128	128	128	128	128	128	128	128	128	128	128	128	128	128	133	133	133	133	130	130	130	130	130	130	130	130	131	131	131	131	135	135	135	135	135	135	135	135	129	129	129	129	129	129	129	129	140	140	140	140	134	134	134	134	139	139	139	139	138	138	138	138	134	134	134	134	140	140	140	140	137	137	137	137	129	129	129	129	137	137	137	137	140	140	140	140	141	141	141	141	142	142	142	142	143	143	143	143	143	143	143	143	143	143	143	143	143	143	143	143	142	142	142	142	145	145	145	145	139	139	139	139	138	138
134	134	140	140	140	140	141	141	141	141	133	133	133	133	131	131	131	131	134	134	134	134	148	148	148	148	146	146	146	146	148	148	148	148	142	142	142	142	145	145	145	145	143	143	143	143	134	134	134	134	141	141	141	141	145	145	145	145	142	142	142	142	141	141	141	141	138	138	138	138	144	144	144	144	143	143	143	143	145	145	145	145	134	134	134	134	129	129	129	129	136	136	136	136	140	140	140	140	138	138	138	138	142	142	142	142	142	142	142	142	141	141	141	141	137	137	137	137	132	132	132	132	130	130	130	130	131	131	131	131	131	131	131	131	131	131	131	131	131	131	131	131	131	131	131	131	133	133	133	133	131	131	131	131	132	132	132	132	129	129	129	129	140	140	140	140	140	140	140	140	129	129	129	129	132	132	132	132	136	136	136	136	140	140	140	140	136	136	136	136	132	132	132	132	131	131	131	131	133	133	133	133	131	131	131	131	132	132	132	132	136	136	136	136	137	137	137	137	129	129	129	129	140	140	140	140	134	134	134	134	140	140	140	140	129	129	129	129	129	129	129	129	136	136	136	136	136	136	136	136	135	135	135	135	131	131	131	131	130	130	130	130	131	131	131	131	131	131	131	131	133	133	133	133	127	127	127	127	128	128	128	128	128	128	128	128	128	128	128	128	133	133	133	133	130	130	130	130	131	131	131	131	131	131	131	131	132	132	132	132	135	135	135	135	136	136	136	136	137	137	137	137	140	140	140	140	141	141	141	141	138	138	138	138	140	140	140	140	137	137	137	137	129	129	129	129	136	136	136	136	137	137	137	137	140	140	140	140	140	140	140	140	141	141	141	141	143	143	143	143	143	143	143	143	142	142	142	142	143	143	143	143	142	142	142	142	145	145	145	145	145	145	145	145	141	141	141	141	140	140
134	134	140	140	140	140	141	141	141	141	133	133	133	133	131	131	131	131	134	134	134	134	148	148	148	148	146	146	146	146	148	148	148	148	142	142	142	142	145	145	145	145	143	143	143	143	134	134	134	134	141	141	141	141	145	145	145	145	142	142	142	142	141	141	141	141	138	138	138	138	144	144	144	144	143	143	143	143	145	145	145	145	134	134	134	134	129	129	129	129	136	136	136	136	140	140	140	140	138	138	138	138	142	142	142	142	142	142	142	142	141	141	141	141	137	137	137	137	132	132	132	132	130	130	130	130	131	131	131	131	131	131	131	131	131	131	131	131	131	131	131	131	131	131	131	131	133	133	133	133	131	131	131	131	132	132	132	132	129	129	129	129	140	140	140	140	140	140	140	140	129	129	129	129	132	132	132	132	136	136	136	136	140	140	140	140	136	136	136	136	132	132	132	132	131	131	131	131	133	133	133	133	131	131	131	131	132	132	132	132	136	136	136	136	137	137	137	137	129	129	129	129	140	140	140	140	134	134	134	134	140	140	140	140	129	129	129	129	129	129	129	129	136	136	136	136	136	136	136	136	135	135	135	135	131	131	131	131	130	130	130	130	131	131	131	131	131	131	131	131	133	133	133	133	127	127	127	127	128	128	128	128	128	128	128	128	128	128	128	128	133	133	133	133	130	130	130	130	131	131	131	131	131	131	131	131	132	132	132	132	135	135	135	135	136	136	136	136	137	137	137	137	140	140	140	140	141	141	141	141	138	138	138	138	140	140	140	140	137	137	137	137	129	129	129	129	136	136	136	136	137	137	137	137	140	140	140	140	140	140	140	140	141	141	141	141	143	143	143	143	143	143	143	143	142	142	142	142	143	143	143	143	142	142	142	142	145	145	145	145	145	145	145	145	141	141	141	141	140	140
134	134	140	140	140	140	141	141	141	141	133	133	133	133	131	131	131	131	134	134	134	134	148	148	148	148	146	146	146	146	148	148	148	148	142	142	142	142	145	145	145	145	143	143	143	143	134	134	134	134	141	141	141	141	145	145	145	145	142	142	142	142	141	141	141	141	138	138	138	138	144	144	144	144	143	143	143	143	145	145	145	145	134	134	134	134	129	129	129	129	136	136	136	136	140	140	140	140	138	138	138	138	142	142	142	142	142	142	142	142	141	141	141	141	137	137	137	137	132	132	132	132	130	130	130	130	131	131	131	131	131	131	131	131	131	131	131	131	131	131	131	131	131	131	131	131	133	133	133	133	131	131	131	131	132	132	132	132	129	129	129	129	140	140	140	140	140	140	140	140	129	129	129	129	132	132	132	132	136	136	136	136	140	140	140	140	136	136	136	136	132	132	132	132	131	131	131	131	133	133	133	133	131	131	131	131	132	132	132	132	136	136	136	136	137	137	137	137	129	129	129	129	140	140	140	140	134	134	134	134	140	140	140	140	129	129	129	129	129	129	129	129	136	136	136	136	136	136	136	136	135	135	135	135	131	131	131	131	130	130	130	130	131	131	131	131	131	131	131	131	133	133	133	133	127	127	127	127	128	128	128	128	128	128	128	128	128	128	128	128	133	133	133	133	130	130	130	130	131	131	131	131	131	131	131	131	132	132	132	132	135	135	135	135	136	136	136	136	137	137	137	137	140	140	140	140	141	141	141	141	138	138	138	138	140	140	140	140	137	137	137	137	129	129	129	129	136	136	136	136	137	137	137	137	140	140	140	140	140	140	140	140	141	141	141	141	143	143	143	143	143	143	143	143	142	142	142	142	143	143	143	143	142	142	142	142	145	145	145	145	145	145	145	145	141	141	141	141	140	140
134	134	140	140	140	140	141	141	141	141	133	133	133	133	131	131	131	131	134	134	134	134	148	148	148	148	146	146	146	146	148	148	148	148	142	142	142	142	145	145	145	145	143	143	143	143	134	134	134	134	141	141	141	141	145	145	145	145	142	142	142	142	141	141	141	141	138	138	138	138	144	144	144	144	143	143	143	143	145	145	145	145	134	134	134	134	129	129	129	129	136	136	136	136	140	140	140	140	138	138	138	138	142	142	142	142	142	142	142	142	141	141	141	141	137	137	137	137	132	132	132	132	130	130	130	130	131	131	131	131	131	131	131	131	131	131	131	131	131	131	131	131	131	131	131	131	133	133	133	133	131	131	131	131	132	132	132	132	129	129	129	129	140	140	140	140	140	140	140	140	129	129	129	129	132	132	132	132	136	136	136	136	140	140	140	140	136	136	136	136	132	132	132	132	131	131	131	131	133	133	133	133	131	131	131	131	132	132	132	132	136	136	136	136	137	137	137	137	129	129	129	129	140	140	140	140	134	134	134	134	140	140	140	140	129	129	129	129	129	129	129	129	136	136	136	136	136	136	136	136	135	135	135	135	131	131	131	131	130	130	130	130	131	131	131	131	131	131	131	131	133	133	133	133	127	127	127	127	128	128	128	128	128	128	128	128	128	128	128	128	133	133	133	133	130	130	130	130	131	131	131	131	131	131	131	131	132	132	132	132	135	135	135	135	136	136	136	136	137	137	137	137	140	140	140	140	141	141	141	141	138	138	138	138	140	140	140	140	137	137	137	137	129	129	129	129	136	136	136	136	137	137	137	137	140	140	140	140	140	140	140	140	141	141	141	141	143	143	143	143	143	143	143	143	142	142	142	142	143	143	143	143	142	142	142	142	145	145	145	145	145	145	145	145	141	141	141	141	140	140
128	128	132	132	132	132	145	145	145	145	130	130	130	130	135	135	135	135	143	143	143	143	143	143	143	143	147	147	147	147	145	145	145	145	138	138	138	138	142	142	142	142	139	139	139	139	137	137	137	137	137	137	137	137	138	138	138	138	141	141	141	141	140	140	140	140	141	141	141	141	145	145	145	145	145	145	145	145	139	139	139	139	140	140	140	140	135	135	135	135	132	132	132	132	129	129	129	129	140	140	140	140	141	141	141	141	138	138	138	138	137	137	137	137	135	135	135	135	130	130	130	130	133	133	133	133	130	130	130	130	131	131	131	131	130	130	130	130	131	131	131	131	130	130	130	130	133	133	133	133	131	131	131	131	132	132	132	132	129	129	129	129	140	140	140	140	140	140	140	140	136	136	136	136	132	132	132	132	132	132	132	132	129	129	129	129	136	136	136	136	132	132	132	132	131	131	131	131	133	133	133	133	131	131	131	131	129	129	129	129	140	140	140	140	140	140	140	140	140	140	140	140	134	134	134	134	134	134	134	134	140	140	140	140	137	137	137	137	137	137	137	137	137	137	137	137	129	129	129	129	136	136	136	136	132	132	132	132	130	130	130	130	130	130	130	130	130	130	130	130	128	128	128	128	127	127	127	127	128	128	128	128	128	128	128	128	133	133	133	133	130	130	130	130	131	131	131	131	136	136	136	136	136	136	136	136	136	136	136	136	137	137	137	137	140	140	140	140	138	138	138	138	138	138	138	138	134	134	134	134	140	140	140	140	137	137	137	137	136	136	136	136	135	135	135	135	140	140	140	140	134	134	134	134	140	140	140	140	140	140	140	140	139	139	139	139	145	145	145	145	145	145	145	145	145	145	145	145	142	142	142	142	145	145	145	145	141	141	141	141	141	141	141	141	138	138	138	138	140	140
128	128	132	132	132	132	145	145	145	145	130	130	130	130	135	135	135	135	143	143	143	143	143	143	143	143	147	147	147	147	145	145	145	145	138	138	138	138	142	142	142	142	139	139	139	139	137	137	137	137	137	137	137	137	138	138	138	138	141	141	141	141	140	140	140	140	141	141	141	141	145	145	145	145	145	145	145	145	139	139	139	139	140	140	140	140	135	135	135	135	132	132	132	132	129	129	129	129	140	140	140	140	141	141	141	141	138	138	138	138	137	137	137	137	135	135	135	135	130	130	130	130	133	133	133	133	130	130	130	130	131	131	131	131	130	130	130	130	131	131	131	131	130	130	130	130	133	133	133	133	131	131	131	131	132	132	132	132	129	129	129	129	140	140	140	140	140	140	140	140	136	136	136	136	132	132	132	132	132	132	132	132	129	129	129	129	136	136	136	136	132	132	132	132	131	131	131	131	133	133	133	133	131	131	131	131	129	129	129	129	140	140	140	140	140	140	140	140	140	140	140	140	134	134	134	134	134	134	134	134	140	140	140	140	137	137	137	137	137	137	137	137	137	137	137	137	129	129	129	129	136	136	136	136	132	132	132	132	130	130	130	130	130	130	130	130	130	130	130	130	128	128	128	128	127	127	127	127	128	128	128	128	128	128	128	128	133	133	133	133	130	130	130	130	131	131	131	131	136	136	136	136	136	136	136	136	136	136	136	136	137	137	137	137	140	140	140	140	138	138	138	138	138	138	138	138	134	134	134	134	140	140	140	140	137	137	137	137	136	136	136	136	135	135	135	135	140	140	140	140	134	134	134	134	140	140	140	140	140	140	140	140	139	139	139	139	145	145	145	145	145	145	145	145	145	145	145	145	142	142	142	142	145	145	145	145	141	141	141	141	141	141	141	141	138	138	138	138	140	140
128	128	132	132	132	132	145	145	145	145	130	130	130	130	135	135	135	135	143	143	143	143	143	143	143	143	147	147	147	147	145	145	145	145	138	138	138	138	142	142	142	142	139	139	139	139	137	137	137	137	137	137	137	137	138	138	138	138	141	141	141	141	140	140	140	140	141	141	141	141	145	145	145	145	145	145	145	145	139	139	139	139	140	140	140	140	135	135	135	135	132	132	132	132	129	129	129	129	140	140	140	140	141	141	141	141	138	138	138	138	137	137	137	137	135	135	135	135	130	130	130	130	133	133	133	133	130	130	130	130	131	131	131	131	130	130	130	130	131	131	131	131	130	130	130	130	133	133	133	133	131	131	131	131	132	132	132	132	129	129	129	129	140	140	140	140	140	140	140	140	136	136	136	136	132	132	132	132	132	132	132	132	129	129	129	129	136	136	136	136	132	132	132	132	131	131	131	131	133	133	133	133	131	131	131	131	129	129	129	129	140	140	140	140	140	140	140	140	140	140	140	140	134	134	134	134	134	134	134	134	140	140	140	140	137	137	137	137	137	137	137	137	137	137	137	137	129	129	129	129	136	136	136	136	132	132	132	132	130	130	130	130	130	130	130	130	130	130	130	130	128	128	128	128	127	127	127	127	128	128	128	128	128	128	128	128	133	133	133	133	130	130	130	130	131	131	131	131	136	136	136	136	136	136	136	136	136	136	136	136	137	137	137	137	140	140	140	140	138	138	138	138	138	138	138	138	134	134	134	134	140	140	140	140	137	137	137	137	136	136	136	136	135	135	135	135	140	140	140	140	134	134	134	134	140	140	140	140	140	140	140	140	139	139	139	139	145	145	145	145	145	145	145	145	145	145	145	145	142	142	142	142	145	145	145	145	141	141	141	141	141	141	141	141	138	138	138	138	140	140
128	128	132	132	132	132	145	145	145	145	130	130	130	130	135	135	135	135	143	143	143	143	143	143	143	143	147	147	147	147	145	145	145	145	138	138	138	138	142	142	142	142	139	139	139	139	137	137	137	137	137	137	137	137	138	138	138	138	141	141	141	141	140	140	140	140	141	141	141	141	145	145	145	145	145	145	145	145	139	139	139	139	140	140	140	140	135	135	135	135	132	132	132	132	129	129	129	129	140	140	140	140	141	141	141	141	138	138	138	138	137	137	137	137	135	135	135	135	130	130	130	130	133	133	133	133	130	130	130	130	131	131	131	131	130	130	130	130	131	131	131	131	130	130	130	130	133	133	133	133	131	131	131	131	132	132	132	132	129	129	129	129	140	140	140	140	140	140	140	140	136	136	136	136	132	132	132	132	132	132	132	132	129	129	129	129	136	136	136	136	132	132	132	132	131	131	131	131	133	133	133	133	131	131	131	131	129	129	129	129	140	140	140	140	140	140	140	140	140	140	140	140	134	134	134	134	134	134	134	134	140	140	140	140	137	137	137	137	137	137	137	137	137	137	137	137	129	129	129	129	136	136	136	136	132	132	132	132	130	130	130	130	130	130	130	130	130	130	130	130	128	128	128	128	127	127	127	127	128	128	128	128	128	128	128	128	133	133	133	133	130	130	130	130	131	131	131	131	136	136	136	136	136	136	136	136	136	136	136	136	137	137	137	137	140	140	140	140	138	138	138	138	138	138	138	138	134	134	134	134	140	140	140	140	137	137	137	137	136	136	136	136	135	135	135	135	140	140	140	140	134	134	134	134	140	140	140	140	140	140	140	140	139	139	139	139	145	145	145	145	145	145	145	145	145	145	145	145	142	142	142	142	145	145	145	145	141	141	141	141	141	141	141	141	138	138	138	138	140	140
127	127	128	128	128	128	140	140	140	140	133	133	133	133	129	129	129	129	143	143	143	143	139	139	139	139	148	148	148	148	140	140	140	140	141	141	141	141	143	143	143	143	138	138	138	138	137	137	137	137	136	136	136	136	137	137	137	137	134	134	134	134	140	140	140	140	134	134	134	134	138	138	138	138	141	141	141	141	134	134	134	134	136	136	136	136	130	130	130	130	130	130	130	130	131	131	131	131	129	129	129	129	129	129	129	129	135	135	135	135	131	131	131	131	130	130	130	130	131	131	131	131	133	133	133	133	130	130	130	130	130	130	130	130	130	130	130	130	131	131	131	131	133	133	133	133	130	130	130	130	131	131	131	131	135	135	135	135	129	129	129	129	137	137	137	137	140	140	140	140	136	136	136	136	132	132	132	132	131	131	131	131	135	135	135	135	135	135	135	135	131	131	131	131	131	131	131	131	133	133	133	133	131	131	131	131	129	129	129	129	137	137	137	137	129	129	129	129	140	140	140	140	140	140	140	140	138	138	138	138	140	140	140	140	140	140	140	140	140	140	140	140	137	137	137	137	129	129	129	129	135	135	135	135	132	132	132	132	131	131	131	131	130	130	130	130	128	128	128	128	128	128	128	128	127	127	127	127	128	128	128	128	128	128	128	128	130	130	130	130	131	131	131	131	132	132	132	132	137	137	137	137	140	140	140	140	134	134	134	134	138	138	138	138	134	134	134	134	141	141	141	141	140	140	140	140	140	140	140	140	129	129	129	129	135	135	135	135	135	135	135	135	140	140	140	140	139	139	139	139	134	134	134	134	140	140	140	140	140	140	140	140	138	138	138	138	141	141	141	141	145	145	145	145	145	145	145	145	145	145	145	145	139	139	139	139	138	138	138	138	138	138	138	138	140	140	140	140	129	129
127	127	128	128	128	128	140	140	140	140	133	133	133	133	129	129	129	129	143	143	143	143	139	139	139	139	148	148	148	148	140	140	140	140	141	141	141	141	143	143	143	143	138	138	138	138	137	137	137	137	136	136	136	136	137	137	137	137	134	134	134	134	140	140	140	140	134	134	134	134	138	138	138	138	141	141	141	141	134	134	134	134	136	136	136	136	130	130	130	130	130	130	130	130	131	131	131	131	129	129	129	129	129	129	129	129	135	135	135	135	131	131	131	131	130	130	130	130	131	131	131	131	133	133	133	133	130	130	130	130	130	130	130	130	130	130	130	130	131	131	131	131	133	133	133	133	130	130	130	130	131	131	131	131	135	135	135	135	129	129	129	129	137	137	137	137	140	140	140	140	136	136	136	136	132	132	132	132	131	131	131	131	135	135	135	135	135	135	135	135	131	131	131	131	131	131	131	131	133	133	133	133	131	131	131	131	129	129	129	129	137	137	137	137	129	129	129	129	140	140	140	140	140	140	140	140	138	138	138	138	140	140	140	140	140	140	140	140	140	140	140	140	137	137	137	137	129	129	129	129	135	135	135	135	132	132	132	132	131	131	131	131	130	130	130	130	128	128	128	128	128	128	128	128	127	127	127	127	128	128	128	128	128	128	128	128	130	130	130	130	131	131	131	131	132	132	132	132	137	137	137	137	140	140	140	140	134	134	134	134	138	138	138	138	134	134	134	134	141	141	141	141	140	140	140	140	140	140	140	140	129	129	129	129	135	135	135	135	135	135	135	135	140	140	140	140	139	139	139	139	134	134	134	134	140	140	140	140	140	140	140	140	138	138	138	138	141	141	141	141	145	145	145	145	145	145	145	145	145	145	145	145	139	139	139	139	138	138	138	138	138	138	138	138	140	140	140	140	129	129
127	127	128	128	128	128	140	140	140	140	133	133	133	133	129	129	129	129	143	143	143	143	139	139	139	139	148	148	148	148	140	140	140	140	141	141	141	141	143	143	143	143	138	138	138	138	137	137	137	137	136	136	136	136	137	137	137	137	134	134	134	134	140	140	140	140	134	134	134	134	138	138	138	138	141	141	141	141	134	134	134	134	136	136	136	136	130	130	130	130	130	130	130	130	131	131	131	131	129	129	129	129	129	129	129	129	135	135	135	135	131	131	131	131	130	130	130	130	131	131	131	131	133	133	133	133	130	130	130	130	130	130	130	130	130	130	130	130	131	131	131	131	133	133	133	133	130	130	130	130	131	131	131	131	135	135	135	135	129	129	129	129	137	137	137	137	140	140	140	140	136	136	136	136	132	132	132	132	131	131	131	131	135	135	135	135	135	135	135	135	131	131	131	131	131	131	131	131	133	133	133	133	131	131	131	131	129	129	129	129	137	137	137	137	129	129	129	129	140	140	140	140	140	140	140	140	138	138	138	138	140	140	140	140	140	140	140	140	140	140	140	140	137	137	137	137	129	129	129	129	135	135	135	135	132	132	132	132	131	131	131	131	130	130	130	130	128	128	128	128	128	128	128	128	127	127	127	127	128	128	128	128	128	128	128	128	130	130	130	130	131	131	131	131	132	132	132	132	137	137	137	137	140	140	140	140	134	134	134	134	138	138	138	138	134	134	134	134	141	141	141	141	140	140	140	140	140	140	140	140	129	129	129	129	135	135	135	135	135	135	135	135	140	140	140	140	139	139	139	139	134	134	134	134	140	140	140	140	140	140	140	140	138	138	138	138	141	141	141	141	145	145	145	145	145	145	145	145	145	145	145	145	139	139	139	139	138	138	138	138	138	138	138	138	140	140	140	140	129	129
127	127	128	128	128	128	140	140	140	140	133	133	133	133	129	129	129	129	143	143	143	143	139	139	139	139	148	148	148	148	140	140	140	140	141	141	141	141	143	143	143	143	138	138	138	138	137	137	137	137	136	136	136	136	137	137	137	137	134	134	134	134	140	140	140	140	134	134	134	134	138	138	138	138	141	141	141	141	134	134	134	134	136	136	136	136	130	130	130	130	130	130	130	130	131	131	131	131	129	129	129	129	129	129	129	129	135	135	135	135	131	131	131	131	130	130	130	130	131	131	131	131	133	133	133	133	130	130	130	130	130	130	130	130	130	130	130	130	131	131	131	131	133	133	133	133	130	130	130	130	131	131	131	131	135	135	135	135	129	129	129	129	137	137	137	137	140	140	140	140	136	136	136	136	132	132	132	132	131	131	131	131	135	135	135	135	135	135	135	135	131	131	131	131	131	131	131	131	133	133	133	133	131	131	131	131	129	129	129	129	137	137	137	137	129	129	129	129	140	140	140	140	140	140	140	140	138	138	138	138	140	140	140	140	140	140	140	140	140	140	140	140	137	137	137	137	129	129	129	129	135	135	135	135	132	132	132	132	131	131	131	131	130	130	130	130	128	128	128	128	128	128	128	128	127	127	127	127	128	128	128	128	128	128	128	128	130	130	130	130	131	131	131	131	132	132	132	132	137	137	137	137	140	140	140	140	134	134	134	134	138	138	138	138	134	134	134	134	141	141	141	141	140	140	140	140	140	140	140	140	129	129	129	129	135	135	135	135	135	135	135	135	140	140	140	140	139	139	139	139	134	134	134	134	140	140	140	140	140	140	140	140	138	138	138	138	141	141	141	141	145	145	145	145	145	145	145	145	145	145	145	145	139	139	139	139	138	138	138	138	138	138	138	138	140	140	140	140	129	129
133	133	128	128	128	128	128	128	128	128	133	133	133	133	137	137	137	137	129	129	129	129	129	129	129	129	140	140	140	140	137	137	137	137	141	141	141	141	139	139	139	139	134	134	134	134	140	140	140	140	135	135	135	135	136	136	136	136	140	140	140	140	129	129	129	129	137	137	137	137	137	137	137	137	129	129	129	129	136	136	136	136	133	133	133	133	127	127	127	127	130	130	130	130	135	135	135	135	131	131	131	131	128	128	128	128	133	133	133	133	133	133	133	133	130	130	130	130	130	130	130	130	133	133	133	133	133	133	133	133	130	130	130	130	130	130	130	130	130	130	130	130	128	128	128	128	130	130	130	130	132	132	132	132	132	132	132	132	135	135	135	135	136	136	136	136	137	137	137	137	136	136	136	136	132	132	132	132	131	131	131	131	131	131	131	131	132	132	132	132	132	132	132	132	131	131	131	131	133	133	133	133	131	131	131	131	135	135	135	135	132	132	132	132	129	129	129	129	137	137	137	137	140	140	140	140	134	134	134	134	140	140	140	140	140	140	140	140	140	140	140	140	137	137	137	137	136	136	136	136	135	135	135	135	131	131	131	131	130	130	130	130	130	130	130	130	133	133	133	133	128	128	128	128	127	127	127	127	128	128	128	128	133	133	133	133	130	130	130	130	132	132	132	132	136	136	136	136	140	140	140	140	138	138	138	138	139	139	139	139	141	141	141	141	140	140	140	140	134	134	134	134	137	137	137	137	129	129	129	129	135	135	135	135	132	132	132	132	137	137	137	137	141	141	141	141	138	138	138	138	140	140	140	140	129	129	129	129	140	140	140	140	134	134	134	134	139	139	139	139	145	145	145	145	141	141	141	141	141	141	141	141	138	138	138	138	140	140	140	140	140	140	140	140	137	137	137	137	135	135
133	133	128	128	128	128	128	128	128	128	133	133	133	133	137	137	137	137	129	129	129	129	129	129	129	129	140	140	140	140	137	137	137	137	141	141	141	141	139	139	139	139	134	134	134	134	140	140	140	140	135	135	135	135	136	136	136	136	140	140	140	140	129	129	129	129	137	137	137	137	137	137	137	137	129	129	129	129	136	136	136	136	133	133	133	133	127	127	127	127	130	130	130	130	135	135	135	135	131	131	131	131	128	128	128	128	133	133	133	133	133	133	133	133	130	130	130	130	130	130	130	130	133	133	133	133	133	133	133	133	130	130	130	130	130	130	130	130	130	130	130	130	128	128	128	128	130	130	130	130	132	132	132	132	132	132	132	132	135	135	135	135	136	136	136	136	137	137	137	137	136	136	136	136	132	132	132	132	131	131	131	131	131	131	131	131	132	132	132	132	132	132	132	132	131	131	131	131	133	133	133	133	131	131	131	131	135	135	135	135	132	132	132	132	129	129	129	129	137	137	137	137	140	140	140	140	134	134	134	134	140	140	140	140	140	140	140	140	140	140	140	140	137	137	137	137	136	136	136	136	135	135	135	135	131	131	131	131	130	130	130	130	130	130	130	130	133	133	133	133	128	128	128	128	127	127	127	127	128	128	128	128	133	133	133	133	130	130	130	130	132	132	132	132	136	136	136	136	140	140	140	140	138	138	138	138	139	139	139	139	141	141	141	141	140	140	140	140	134	134	134	134	137	137	137	137	129	129	129	129	135	135	135	135	132	132	132	132	137	137	137	137	141	141	141	141	138	138	138	138	140	140	140	140	129	129	129	129	140	140	140	140	134	134	134	134	139	139	139	139	145	145	145	145	141	141	141	141	141	141	141	141	138	138	138	138	140	140	140	140	140	140	140	140	137	137	137	137	135	135
133	133	128	128	128	128	128	128	128	128	133	133	133	133	137	137	137	137	129	129	129	129	129	129	129	129	140	140	140	140	137	137	137	137	141	141	141	141	139	139	139	139	134	134	134	134	140	140	140	140	135	135	135	135	136	136	136	136	140	140	140	140	129	129	129	129	137	137	137	137	137	137	137	137	129	129	129	129	136	136	136	136	133	133	133	133	127	127	127	127	130	130	130	130	135	135	135	135	131	131	131	131	128	128	128	128	133	133	133	133	133	133	133	133	130	130	130	130	130	130	130	130	133	133	133	133	133	133	133	133	130	130	130	130	130	130	130	130	130	130	130	130	128	128	128	128	130	130	130	130	132	132	132	132	132	132	132	132	135	135	135	135	136	136	136	136	137	137	137	137	136	136	136	136	132	132	132	132	131	131	131	131	131	131	131	131	132	132	132	132	132	132	132	132	131	131	131	131	133	133	133	133	131	131	131	131	135	135	135	135	132	132	132	132	129	129	129	129	137	137	137	137	140	140	140	140	134	134	134	134	140	140	140	140	140	140	140	140	140	140	140	140	137	137	137	137	136	136	136	136	135	135	135	135	131	131	131	131	130	130	130	130	130	130	130	130	133	133	133	133	128	128	128	128	127	127	127	127	128	128	128	128	133	133	133	133	130	130	130	130	132	132	132	132	136	136	136	136	140	140	140	140	138	138	138	138	139	139	139	139	141	141	141	141	140	140	140	140	134	134	134	134	137	137	137	137	129	129	129	129	135	135	135	135	132	132	132	132	137	137	137	137	141	141	141	141	138	138	138	138	140	140	140	140	129	129	129	129	140	140	140	140	134	134	134	134	139	139	139	139	145	145	145	145	141	141	141	141	141	141	141	141	138	138	138	138	140	140	140	140	140	140	140	140	137	137	137	137	135	135
133	133	128	128	128	128	128	128	128	128	133	133	133	133	137	137	137	137	129	129	129	129	129	129	129	129	140	140	140	140	137	137	137	137	141	141	141	141	139	139	139	139	134	134	134	134	140	140	140	140	135	135	135	135	136	136	136	136	140	140	140	140	129	129	129	129	137	137	137	137	137	137	137	137	129	129	129	129	136	136	136	136	133	133	133	133	127	127	127	127	130	130	130	130	135	135	135	135	131	131	131	131	128	128	128	128	133	133	133	133	133	133	133	133	130	130	130	130	130	130	130	130	133	133	133	133	133	133	133	133	130	130	130	130	130	130	130	130	130	130	130	130	128	128	128	128	130	130	130	130	132	132	132	132	132	132	132	132	135	135	135	135	136	136	136	136	137	137	137	137	136	136	136	136	132	132	132	132	131	131	131	131	131	131	131	131	132	132	132	132	132	132	132	132	131	131	131	131	133	133	133	133	131	131	131	131	135	135	135	135	132	132	132	132	129	129	129	129	137	137	137	137	140	140	140	140	134	134	134	134	140	140	140	140	140	140	140	140	140	140	140	140	137	137	137	137	136	136	136	136	135	135	135	135	131	131	131	131	130	130	130	130	130	130	130	130	133	133	133	133	128	128	128	128	127	127	127	127	128	128	128	128	133	133	133	133	130	130	130	130	132	132	132	132	136	136	136	136	140	140	140	140	138	138	138	138	139	139	139	139	141	141	141	141	140	140	140	140	134	134	134	134	137	137	137	137	129	129	129	129	135	135	135	135	132	132	132	132	137	137	137	137	141	141	141	141	138	138	138	138	140	140	140	140	129	129	129	129	140	140	140	140	134	134	134	134	139	139	139	139	145	145	145	145	141	141	141	141	141	141	141	141	138	138	138	138	140	140	140	140	140	140	140	140	137	137	137	137	135	135
131	131	130	130	130	130	124	124	124	124	128	128	128	128	130	130	130	130	133	133	133	133	135	135	135	135	140	140	140	140	134	134	134	134	140	140	140	140	140	140	140	140	137	137	137	137	129	129	129	129	131	131	131	131	132	132	132	132	136	136	136	136	132	132	132	132	132	132	132	132	136	136	136	136	131	131	131	131	128	128	128	128	127	127	127	127	125	125	125	125	127	127	127	127	128	128	128	128	128	128	128	128	127	127	127	127	128	128	128	128	130	130	130	130	130	130	130	130	130	130	130	130	130	130	130	130	128	128	128	128	130	130	130	130	130	130	130	130	128	128	128	128	128	128	128	128	130	130	130	130	131	131	131	131	132	132	132	132	136	136	136	136	137	137	137	137	140	140	140	140	129	129	129	129	136	136	136	136	132	132	132	132	131	131	131	131	130	130	130	130	131	131	131	131	131	131	131	131	133	133	133	133	130	130	130	130	131	131	131	131	136	136	136	136	137	137	137	137	140	140	140	140	140	140	140	140	140	140	140	140	137	137	137	137	136	136	136	136	129	129	129	129	136	136	136	136	136	136	136	136	135	135	135	135	131	131	131	131	131	131	131	131	130	130	130	130	133	133	133	133	128	128	128	128	127	127	127	127	128	128	128	128	130	130	130	130	131	131	131	131	132	132	132	132	129	129	129	129	134	134	134	134	138	138	138	138	141	141	141	141	134	134	134	134	140	140	140	140	140	140	140	140	129	129	129	129	135	135	135	135	132	132	132	132	137	137	137	137	138	138	138	138	134	134	134	134	137	137	137	137	136	136	136	136	140	140	140	140	138	138	138	138	139	139	139	139	145	145	145	145	139	139	139	139	138	138	138	138	140	140	140	140	140	140	140	140	140	140	140	140	129	129	129	129	135	135	135	135	132	132
131	131	130	130	130	130	124	124	124	124	128	128	128	128	130	130	130	130	133	133	133	133	135	135	135	135	140	140	140	140	134	134	134	134	140	140	140	140	140	140	140	140	137	137	137	137	129	129	129	129	131	131	131	131	132	132	132	132	136	136	136	136	132	132	132	132	132	132	132	132	136	136	136	136	131	131	131	131	128	128	128	128	127	127	127	127	125	125	125	125	127	127	127	127	128	128	128	128	128	128	128	128	127	127	127	127	128	128	128	128	130	130	130	130	130	130	130	130	130	130	130	130	130	130	130	130	128	128	128	128	130	130	130	130	130	130	130	130	128	128	128	128	128	128	128	128	130	130	130	130	131	131	131	131	132	132	132	132	136	136	136	136	137	137	137	137	140	140	140	140	129	129	129	129	136	136	136	136	132	132	132	132	131	131	131	131	130	130	130	130	131	131	131	131	131	131	131	131	133	133	133	133	130	130	130	130	131	131	131	131	136	136	136	136	137	137	137	137	140	140	140	140	140	140	140	140	140	140	140	140	137	137	137	137	136	136	136	136	129	129	129	129	136	136	136	136	136	136	136	136	135	135	135	135	131	131	131	131	131	131	131	131	130	130	130	130	133	133	133	133	128	128	128	128	127	127	127	127	128	128	128	128	130	130	130	130	131	131	131	131	132	132	132	132	129	129	129	129	134	134	134	134	138	138	138	138	141	141	141	141	134	134	134	134	140	140	140	140	140	140	140	140	129	129	129	129	135	135	135	135	132	132	132	132	137	137	137	137	138	138	138	138	134	134	134	134	137	137	137	137	136	136	136	136	140	140	140	140	138	138	138	138	139	139	139	139	145	145	145	145	139	139	139	139	138	138	138	138	140	140	140	140	140	140	140	140	140	140	140	140	129	129	129	129	135	135	135	135	132	132
131	131	130	130	130	130	124	124	124	124	128	128	128	128	130	130	130	130	133	133	133	133	135	135	135	135	140	140	140	140	134	134	134	134	140	140	140	140	140	140	140	140	137	137	137	137	129	129	129	129	131	131	131	131	132	132	132	132	136	136	136	136	132	132	132	132	132	132	132	132	136	136	136	136	131	131	131	131	128	128	128	128	127	127	127	127	125	125	125	125	127	127	127	127	128	128	128	128	128	128	128	128	127	127	127	127	128	128	128	128	130	130	130	130	130	130	130	130	130	130	130	130	130	130	130	130	128	128	128	128	130	130	130	130	130	130	130	130	128	128	128	128	128	128	128	128	130	130	130	130	131	131	131	131	132	132	132	132	136	136	136	136	137	137	137	137	140	140	140	140	129	129	129	129	136	136	136	136	132	132	132	132	131	131	131	131	130	130	130	130	131	131	131	131	131	131	131	131	133	133	133	133	130	130	130	130	131	131	131	131	136	136	136	136	137	137	137	137	140	140	140	140	140	140	140	140	140	140	140	140	137	137	137	137	136	136	136	136	129	129	129	129	136	136	136	136	136	136	136	136	135	135	135	135	131	131	131	131	131	131	131	131	130	130	130	130	133	133	133	133	128	128	128	128	127	127	127	127	128	128	128	128	130	130	130	130	131	131	131	131	132	132	132	132	129	129	129	129	134	134	134	134	138	138	138	138	141	141	141	141	134	134	134	134	140	140	140	140	140	140	140	140	129	129	129	129	135	135	135	135	132	132	132	132	137	137	137	137	138	138	138	138	134	134	134	134	137	137	137	137	136	136	136	136	140	140	140	140	138	138	138	138	139	139	139	139	145	145	145	145	139	139	139	139	138	138	138	138	140	140	140	140	140	140	140	140	140	140	140	140	129	129	129	129	135	135	135	135	132	132
131	131	130	130	130	130	124	124	124	124	128	128	128	128	130	130	130	130	133	133	133	133	135	135	135	135	140	140	140	140	134	134	134	134	140	140	140	140	140	140	140	140	137	137	137	137	129	129	129	129	131	131	131	131	132	132	132	132	136	136	136	136	132	132	132	132	132	132	132	132	136	136	136	136	131	131	131	131	128	128	128	128	127	127	127	127	125	125	125	125	127	127	127	127	128	128	128	128	128	128	128	128	127	127	127	127	128	128	128	128	130	130	130	130	130	130	130	130	130	130	130	130	130	130	130	130	128	128	128	128	130	130	130	130	130	130	130	130	128	128	128	128	128	128	128	128	130	130	130	130	131	131	131	131	132	132	132	132	136	136	136	136	137	137	137	137	140	140	140	140	129	129	129	129	136	136	136	136	132	132	132	132	131	131	131	131	130	130	130	130	131	131	131	131	131	131	131	131	133	133	133	133	130	130	130	130	131	131	131	131	136	136	136	136	137	137	137	137	140	140	140	140	140	140	140	140	140	140	140	140	137	137	137	137	136	136	136	136	129	129	129	129	136	136	136	136	136	136	136	136	135	135	135	135	131	131	131	131	131	131	131	131	130	130	130	130	133	133	133	133	128	128	128	128	127	127	127	127	128	128	128	128	130	130	130	130	131	131	131	131	132	132	132	132	129	129	129	129	134	134	134	134	138	138	138	138	141	141	141	141	134	134	134	134	140	140	140	140	140	140	140	140	129	129	129	129	135	135	135	135	132	132	132	132	137	137	137	137	138	138	138	138	134	134	134	134	137	137	137	137	136	136	136	136	140	140	140	140	138	138	138	138	139	139	139	139	145	145	145	145	139	139	139	139	138	138	138	138	140	140	140	140	140	140	140	140	140	140	140	140	129	129	129	129	135	135	135	135	132	132
127	127	127	127	127	127	124	124	124	124	125	125	125	125	128	128	128	128	131	131	131	131	129	129	129	129	137	137	137	137	137	137	137	137	136	136	136	136	129	129	129	129	135	135	135	135	136	136	136	136	131	131	131	131	130	130	130	130	131	131	131	131	130	130	130	130	131	131	131	131	130	130	130	130	127	127	127	127	124	124	124	124	125	125	125	125	121	121	121	121	124	124	124	124	124	124	124	124	124	124	124	124	127	127	127	127	133	133	133	133	130	130	130	130	130	130	130	130	130	130	130	130	130	130	130	130	128	128	128	128	130	130	130	130	130	130	130	130	128	128	128	128	130	130	130	130	131	131	131	131	132	132	132	132	136	136	136	136	137	137	137	137	140	140	140	140	140	140	140	140	137	137	137	137	129	129	129	129	135	135	135	135	131	131	131	131	130	130	130	130	130	130	130	130	130	130	130	130	133	133	133	133	130	130	130	130	135	135	135	135	137	137	137	137	137	137	137	137	129	129	129	129	137	137	137	137	137	137	137	137	137	137	137	137	136	136	136	136	135	135	135	135	132	132	132	132	131	131	131	131	131	131	131	131	131	131	131	131	131	131	131	131	130	130	130	130	128	128	128	128	127	127	127	127	127	127	127	127	128	128	128	128	130	130	130	130	131	131	131	131	135	135	135	135	129	129	129	129	140	140	140	140	140	140	140	140	134	134	134	134	140	140	140	140	137	137	137	137	129	129	129	129	132	132	132	132	131	131	131	131	129	129	129	129	134	134	134	134	134	134	134	134	129	129	129	129	136	136	136	136	140	140	140	140	141	141	141	141	139	139	139	139	139	139	139	139	138	138	138	138	134	134	134	134	140	140	140	140	140	140	140	140	137	137	137	137	136	136	136	136	132	132	132	132	131	131	131	131	131	131
127	127	127	127	127	127	124	124	124	124	125	125	125	125	128	128	128	128	131	131	131	131	129	129	129	129	137	137	137	137	137	137	137	137	136	136	136	136	129	129	129	129	135	135	135	135	136	136	136	136	131	131	131	131	130	130	130	130	131	131	131	131	130	130	130	130	131	131	131	131	130	130	130	130	127	127	127	127	124	124	124	124	125	125	125	125	121	121	121	121	124	124	124	124	124	124	124	124	124	124	124	124	127	127	127	127	133	133	133	133	130	130	130	130	130	130	130	130	130	130	130	130	130	130	130	130	128	128	128	128	130	130	130	130	130	130	130	130	128	128	128	128	130	130	130	130	131	131	131	131	132	132	132	132	136	136	136	136	137	137	137	137	140	140	140	140	140	140	140	140	137	137	137	137	129	129	129	129	135	135	135	135	131	131	131	131	130	130	130	130	130	130	130	130	130	130	130	130	133	133	133	133	130	130	130	130	135	135	135	135	137	137	137	137	137	137	137	137	129	129	129	129	137	137	137	137	137	137	137	137	137	137	137	137	136	136	136	136	135	135	135	135	132	132	132	132	131	131	131	131	131	131	131	131	131	131	131	131	131	131	131	131	130	130	130	130	128	128	128	128	127	127	127	127	127	127	127	127	128	128	128	128	130	130	130	130	131	131	131	131	135	135	135	135	129	129	129	129	140	140	140	140	140	140	140	140	134	134	134	134	140	140	140	140	137	137	137	137	129	129	129	129	132	132	132	132	131	131	131	131	129	129	129	129	134	134	134	134	134	134	134	134	129	129	129	129	136	136	136	136	140	140	140	140	141	141	141	141	139	139	139	139	139	139	139	139	138	138	138	138	134	134	134	134	140	140	140	140	140	140	140	140	137	137	137	137	136	136	136	136	132	132	132	132	131	131	131	131	131	131
127	127	127	127	127	127	124	124	124	124	125	125	125	125	128	128	128	128	131	131	131	131	129	129	129	129	137	137	137	137	137	137	137	137	136	136	136	136	129	129	129	129	135	135	135	135	136	136	136	136	131	131	131	131	130	130	130	130	131	131	131	131	130	130	130	130	131	131	131	131	130	130	130	130	127	127	127	127	124	124	124	124	125	125	125	125	121	121	121	121	124	124	124	124	124	124	124	124	124	124	124	124	127	127	127	127	133	133	133	133	130	130	130	130	130	130	130	130	130	130	130	130	130	130	130	130	128	128	128	128	130	130	130	130	130	130	130	130	128	128	128	128	130	130	130	130	131	131	131	131	132	132	132	132	136	136	136	136	137	137	137	137	140	140	140	140	140	140	140	140	137	137	137	137	129	129	129	129	135	135	135	135	131	131	131	131	130	130	130	130	130	130	130	130	130	130	130	130	133	133	133	133	130	130	130	130	135	135	135	135	137	137	137	137	137	137	137	137	129	129	129	129	137	137	137	137	137	137	137	137	137	137	137	137	136	136	136	136	135	135	135	135	132	132	132	132	131	131	131	131	131	131	131	131	131	131	131	131	131	131	131	131	130	130	130	130	128	128	128	128	127	127	127	127	127	127	127	127	128	128	128	128	130	130	130	130	131	131	131	131	135	135	135	135	129	129	129	129	140	140	140	140	140	140	140	140	134	134	134	134	140	140	140	140	137	137	137	137	129	129	129	129	132	132	132	132	131	131	131	131	129	129	129	129	134	134	134	134	134	134	134	134	129	129	129	129	136	136	136	136	140	140	140	140	141	141	141	141	139	139	139	139	139	139	139	139	138	138	138	138	134	134	134	134	140	140	140	140	140	140	140	140	137	137	137	137	136	136	136	136	132	132	132	132	131	131	131	131	131	131
127	127	127	127	127	127	124	124	124	124	125	125	125	125	128	128	128	128	131	131	131	131	129	129	129	129	137	137	137	137	137	137	137	137	136	136	136	136	129	129	129	129	135	135	135	135	136	136	136	136	131	131	131	131	130	130	130	130	131	131	131	131	130	130	130	130	131	131	131	131	130	130	130	130	127	127	127	127	124	124	124	124	125	125	125	125	121	121	121	121	124	124	124	124	124	124	124	124	124	124	124	124	127	127	127	127	133	133	133	133	130	130	130	130	130	130	130	130	130	130	130	130	130	130	130	130	128	128	128	128	130	130	130	130	130	130	130	130	128	128	128	128	130	130	130	130	131	131	131	131	132	132	132	132	136	136	136	136	137	137	137	137	140	140	140	140	140	140	140	140	137	137	137	137	129	129	129	129	135	135	135	135	131	131	131	131	130	130	130	130	130	130	130	130	130	130	130	130	133	133	133	133	130	130	130	130	135	135	135	135	137	137	137	137	137	137	137	137	129	129	129	129	137	137	137	137	137	137	137	137	137	137	137	137	136	136	136	136	135	135	135	135	132	132	132	132	131	131	131	131	131	131	131	131	131	131	131	131	131	131	131	131	130	130	130	130	128	128	128	128	127	127	127	127	127	127	127	127	128	128	128	128	130	130	130	130	131	131	131	131	135	135	135	135	129	129	129	129	140	140	140	140	140	140	140	140	134	134	134	134	140	140	140	140	137	137	137	137	129	129	129	129	132	132	132	132	131	131	131	131	129	129	129	129	134	134	134	134	134	134	134	134	129	129	129	129	136	136	136	136	140	140	140	140	141	141	141	141	139	139	139	139	139	139	139	139	138	138	138	138	134	134	134	134	140	140	140	140	140	140	140	140	137	137	137	137	136	136	136	136	132	132	132	132	131	131	131	131	131	131
127	127	124	124	124	124	124	124	124	124	128	128	128	128	128	128	128	128	130	130	130	130	132	132	132	132	136	136	136	136	137	137	137	137	135	135	135	135	136	136	136	136	135	135	135	135	132	132	132	132	131	131	131	131	128	128	128	128	125	125	125	125	127	127	127	127	124	124	124	124	124	124	124	124	125	125	125	125	126	126	126	126	123	123	123	123	126	126	126	126	126	126	126	126	124	124	124	124	124	124	124	124	127	127	127	127	128	128	128	128	130	130	130	130	131	131	131	131	131	131	131	131	130	130	130	130	133	133	133	133	128	128	128	128	128	128	128	128	128	128	128	128	130	130	130	130	135	135	135	135	136	136	136	136	129	129	129	129	137	137	137	137	140	140	140	140	140	140	140	140	129	129	129	129	135	135	135	135	135	135	135	135	132	132	132	132	132	132	132	132	130	130	130	130	130	130	130	130	128	128	128	128	133	133	133	133	132	132	132	132	136	136	136	136	136	136	136	136	136	136	136	136	136	136	136	136	137	137	137	137	137	137	137	137	129	129	129	129	136	136	136	136	135	135	135	135	132	132	132	132	131	131	131	131	130	130	130	130	133	133	133	133	133	133	133	133	128	128	128	128	127	127	127	127	127	127	127	127	133	133	133	133	131	131	131	131	132	132	132	132	136	136	136	136	137	137	137	137	140	140	140	140	134	134	134	134	137	137	137	137	129	129	129	129	129	129	129	129	132	132	132	132	131	131	131	131	132	132	132	132	140	140	140	140	134	134	134	134	137	137	137	137	135	135	135	135	129	129	129	129	138	138	138	138	141	141	141	141	141	141	141	141	138	138	138	138	140	140	140	140	140	140	140	140	140	140	140	140	137	137	137	137	136	136	136	136	132	132	132	132	131	131	131	131	131	131	131	131	131	131
127	127	124	124	124	124	124	124	124	124	128	128	128	128	128	128	128	128	130	130	130	130	132	132	132	132	136	136	136	136	137	137	137	137	135	135	135	135	136	136	136	136	135	135	135	135	132	132	132	132	131	131	131	131	128	128	128	128	125	125	125	125	127	127	127	127	124	124	124	124	124	124	124	124	125	125	125	125	126	126	126	126	123	123	123	123	126	126	126	126	126	126	126	126	124	124	124	124	124	124	124	124	127	127	127	127	128	128	128	128	130	130	130	130	131	131	131	131	131	131	131	131	130	130	130	130	133	133	133	133	128	128	128	128	128	128	128	128	128	128	128	128	130	130	130	130	135	135	135	135	136	136	136	136	129	129	129	129	137	137	137	137	140	140	140	140	140	140	140	140	129	129	129	129	135	135	135	135	135	135	135	135	132	132	132	132	132	132	132	132	130	130	130	130	130	130	130	130	128	128	128	128	133	133	133	133	132	132	132	132	136	136	136	136	136	136	136	136	136	136	136	136	136	136	136	136	137	137	137	137	137	137	137	137	129	129	129	129	136	136	136	136	135	135	135	135	132	132	132	132	131	131	131	131	130	130	130	130	133	133	133	133	133	133	133	133	128	128	128	128	127	127	127	127	127	127	127	127	133	133	133	133	131	131	131	131	132	132	132	132	136	136	136	136	137	137	137	137	140	140	140	140	134	134	134	134	137	137	137	137	129	129	129	129	129	129	129	129	132	132	132	132	131	131	131	131	132	132	132	132	140	140	140	140	134	134	134	134	137	137	137	137	135	135	135	135	129	129	129	129	138	138	138	138	141	141	141	141	141	141	141	141	138	138	138	138	140	140	140	140	140	140	140	140	140	140	140	140	137	137	137	137	136	136	136	136	132	132	132	132	131	131	131	131	131	131	131	131	131	131
127	127	124	124	124	124	124	124	124	124	128	128	128	128	128	128	128	128	130	130	130	130	132	132	132	132	136	136	136	136	137	137	137	137	135	135	135	135	136	136	136	136	135	135	135	135	132	132	132	132	131	131	131	131	128	128	128	128	125	125	125	125	127	127	127	127	124	124	124	124	124	124	124	124	125	125	125	125	126	126	126	126	123	123	123	123	126	126	126	126	126	126	126	126	124	124	124	124	124	124	124	124	127	127	127	127	128	128	128	128	130	130	130	130	131	131	131	131	131	131	131	131	130	130	130	130	133	133	133	133	128	128	128	128	128	128	128	128	128	128	128	128	130	130	130	130	135	135	135	135	136	136	136	136	129	129	129	129	137	137	137	137	140	140	140	140	140	140	140	140	129	129	129	129	135	135	135	135	135	135	135	135	132	132	132	132	132	132	132	132	130	130	130	130	130	130	130	130	128	128	128	128	133	133	133	133	132	132	132	132	136	136	136	136	136	136	136	136	136	136	136	136	136	136	136	136	137	137	137	137	137	137	137	137	129	129	129	129	136	136	136	136	135	135	135	135	132	132	132	132	131	131	131	131	130	130	130	130	133	133	133	133	133	133	133	133	128	128	128	128	127	127	127	127	127	127	127	127	133	133	133	133	131	131	131	131	132	132	132	132	136	136	136	136	137	137	137	137	140	140	140	140	134	134	134	134	137	137	137	137	129	129	129	129	129	129	129	129	132	132	132	132	131	131	131	131	132	132	132	132	140	140	140	140	134	134	134	134	137	137	137	137	135	135	135	135	129	129	129	129	138	138	138	138	141	141	141	141	141	141	141	141	138	138	138	138	140	140	140	140	140	140	140	140	140	140	140	140	137	137	137	137	136	136	136	136	132	132	132	132	131	131	131	131	131	131	131	131	131	131
127	127	124	124	124	124	124	124	124	124	128	128	128	128	128	128	128	128	130	130	130	130	132	132	132	132	136	136	136	136	137	137	137	137	135	135	135	135	136	136	136	136	135	135	135	135	132	132	132	132	131	131	131	131	128	128	128	128	125	125	125	125	127	127	127	127	124	124	124	124	124	124	124	124	125	125	125	125	126	126	126	126	123	123	123	123	126	126	126	126	126	126	126	126	124	124	124	124	124	124	124	124	127	127	127	127	128	128	128	128	130	130	130	130	131	131	131	131	131	131	131	131	130	130	130	130	133	133	133	133	128	128	128	128	128	128	128	128	128	128	128	128	130	130	130	130	135	135	135	135	136	136	136	136	129	129	129	129	137	137	137	137	140	140	140	140	140	140	140	140	129	129	129	129	135	135	135	135	135	135	135	135	132	132	132	132	132	132	132	132	130	130	130	130	130	130	130	130	128	128	128	128	133	133	133	133	132	132	132	132	136	136	136	136	136	136	136	136	136	136	136	136	136	136	136	136	137	137	137	137	137	137	137	137	129	129	129	129	136	136	136	136	135	135	135	135	132	132	132	132	131	131	131	131	130	130	130	130	133	133	133	133	133	133	133	133	128	128	128	128	127	127	127	127	127	127	127	127	133	133	133	133	131	131	131	131	132	132	132	132	136	136	136	136	137	137	137	137	140	140	140	140	134	134	134	134	137	137	137	137	129	129	129	129	129	129	129	129	132	132	132	132	131	131	131	131	132	132	132	132	140	140	140	140	134	134	134	134	137	137	137	137	135	135	135	135	129	129	129	129	138	138	138	138	141	141	141	141	141	141	141	141	138	138	138	138	140	140	140	140	140	140	140	140	140	140	140	140	137	137	137	137	136	136	136	136	132	132	132	132	131	131	131	131	131	131	131	131	131	131
135	135	135	135	135	135	130	130	130	130	131	131	131	131	124	124	124	124	128	128	128	128	131	131	131	131	129	129	129	129	137	137	137	137	131	131	131	131	131	131	131	131	132	132	132	132	130	130	130	130	127	127	127	127	125	125	125	125	123	123	123	123	121	121	121	121	126	126	126	126	125	125	125	125	121	121	121	121	120	120	120	120	120	120	120	120	125	125	125	125	124	124	124	124	127	127	127	127	127	127	127	127	128	128	128	128	133	133	133	133	130	130	130	130	131	131	131	131	131	131	131	131	130	130	130	130	130	130	130	130	128	128	128	128	128	128	128	128	130	130	130	130	132	132	132	132	136	136	136	136	137	137	137	137	140	140	140	140	140	140	140	140	134	134	134	134	140	140	140	140	129	129	129	129	136	136	136	136	135	135	135	135	132	132	132	132	131	131	131	131	130	130	130	130	130	130	130	130	133	133	133	133	128	128	128	128	131	131	131	131	132	132	132	132	131	131	131	131	135	135	135	135	129	129	129	129	140	140	140	140	137	137	137	137	137	137	137	137	137	137	137	137	129	129	129	129	136	136	136	136	132	132	132	132	131	131	131	131	130	130	130	130	130	130	130	130	128	128	128	128	127	127	127	127	127	127	127	127	130	130	130	130	131	131	131	131	135	135	135	135	140	140	140	140	134	134	134	134	134	134	134	134	140	140	140	140	129	129	129	129	137	137	137	137	136	136	136	136	131	131	131	131	131	131	131	131	136	136	136	136	140	140	140	140	137	137	137	137	135	135	135	135	135	135	135	135	140	140	140	140	138	138	138	138	138	138	138	138	134	134	134	134	140	140	140	140	137	137	137	137	137	137	137	137	129	129	129	129	135	135	135	135	131	131	131	131	131	131	131	131	131	131	131	131	130	130	130	130	130	130
135	135	135	135	135	135	130	130	130	130	131	131	131	131	124	124	124	124	128	128	128	128	131	131	131	131	129	129	129	129	137	137	137	137	131	131	131	131	131	131	131	131	132	132	132	132	130	130	130	130	127	127	127	127	125	125	125	125	123	123	123	123	121	121	121	121	126	126	126	126	125	125	125	125	121	121	121	121	120	120	120	120	120	120	120	120	125	125	125	125	124	124	124	124	127	127	127	127	127	127	127	127	128	128	128	128	133	133	133	133	130	130	130	130	131	131	131	131	131	131	131	131	130	130	130	130	130	130	130	130	128	128	128	128	128	128	128	128	130	130	130	130	132	132	132	132	136	136	136	136	137	137	137	137	140	140	140	140	140	140	140	140	134	134	134	134	140	140	140	140	129	129	129	129	136	136	136	136	135	135	135	135	132	132	132	132	131	131	131	131	130	130	130	130	130	130	130	130	133	133	133	133	128	128	128	128	131	131	131	131	132	132	132	132	131	131	131	131	135	135	135	135	129	129	129	129	140	140	140	140	137	137	137	137	137	137	137	137	137	137	137	137	129	129	129	129	136	136	136	136	132	132	132	132	131	131	131	131	130	130	130	130	130	130	130	130	128	128	128	128	127	127	127	127	127	127	127	127	130	130	130	130	131	131	131	131	135	135	135	135	140	140	140	140	134	134	134	134	134	134	134	134	140	140	140	140	129	129	129	129	137	137	137	137	136	136	136	136	131	131	131	131	131	131	131	131	136	136	136	136	140	140	140	140	137	137	137	137	135	135	135	135	135	135	135	135	140	140	140	140	138	138	138	138	138	138	138	138	134	134	134	134	140	140	140	140	137	137	137	137	137	137	137	137	129	129	129	129	135	135	135	135	131	131	131	131	131	131	131	131	131	131	131	131	130	130	130	130	130	130
135	135	135	135	135	135	130	130	130	130	131	131	131	131	124	124	124	124	128	128	128	128	131	131	131	131	129	129	129	129	137	137	137	137	131	131	131	131	131	131	131	131	132	132	132	132	130	130	130	130	127	127	127	127	125	125	125	125	123	123	123	123	121	121	121	121	126	126	126	126	125	125	125	125	121	121	121	121	120	120	120	120	120	120	120	120	125	125	125	125	124	124	124	124	127	127	127	127	127	127	127	127	128	128	128	128	133	133	133	133	130	130	130	130	131	131	131	131	131	131	131	131	130	130	130	130	130	130	130	130	128	128	128	128	128	128	128	128	130	130	130	130	132	132	132	132	136	136	136	136	137	137	137	137	140	140	140	140	140	140	140	140	134	134	134	134	140	140	140	140	129	129	129	129	136	136	136	136	135	135	135	135	132	132	132	132	131	131	131	131	130	130	130	130	130	130	130	130	133	133	133	133	128	128	128	128	131	131	131	131	132	132	132	132	131	131	131	131	135	135	135	135	129	129	129	129	140	140	140	140	137	137	137	137	137	137	137	137	137	137	137	137	129	129	129	129	136	136	136	136	132	132	132	132	131	131	131	131	130	130	130	130	130	130	130	130	128	128	128	128	127	127	127	127	127	127	127	127	130	130	130	130	131	131	131	131	135	135	135	135	140	140	140	140	134	134	134	134	134	134	134	134	140	140	140	140	129	129	129	129	137	137	137	137	136	136	136	136	131	131	131	131	131	131	131	131	136	136	136	136	140	140	140	140	137	137	137	137	135	135	135	135	135	135	135	135	140	140	140	140	138	138	138	138	138	138	138	138	134	134	134	134	140	140	140	140	137	137	137	137	137	137	137	137	129	129	129	129	135	135	135	135	131	131	131	131	131	131	131	131	131	131	131	131	130	130	130	130	130	130
135	135	135	135	135	135	130	130	130	130	131	131	131	131	124	124	124	124	128	128	128	128	131	131	131	131	129	129	129	129	137	137	137	137	131	131	131	131	131	131	131	131	132	132	132	132	130	130	130	130	127	127	127	127	125	125	125	125	123	123	123	123	121	121	121	121	126	126	126	126	125	125	125	125	121	121	121	121	120	120	120	120	120	120	120	120	125	125	125	125	124	124	124	124	127	127	127	127	127	127	127	127	128	128	128	128	133	133	133	133	130	130	130	130	131	131	131	131	131	131	131	131	130	130	130	130	130	130	130	130	128	128	128	128	128	128	128	128	130	130	130	130	132	132	132	132	136	136	136	136	137	137	137	137	140	140	140	140	140	140	140	140	134	134	134	134	140	140	140	140	129	129	129	129	136	136	136	136	135	135	135	135	132	132	132	132	131	131	131	131	130	130	130	130	130	130	130	130	133	133	133	133	128	128	128	128	131	131	131	131	132	132	132	132	131	131	131	131	135	135	135	135	129	129	129	129	140	140	140	140	137	137	137	137	137	137	137	137	137	137	137	137	129	129	129	129	136	136	136	136	132	132	132	132	131	131	131	131	130	130	130	130	130	130	130	130	128	128	128	128	127	127	127	127	127	127	127	127	130	130	130	130	131	131	131	131	135	135	135	135	140	140	140	140	134	134	134	134	134	134	134	134	140	140	140	140	129	129	129	129	137	137	137	137	136	136	136	136	131	131	131	131	131	131	131	131	136	136	136	136	140	140	140	140	137	137	137	137	135	135	135	135	135	135	135	135	140	140	140	140	138	138	138	138	138	138	138	138	134	134	134	134	140	140	140	140	137	137	137	137	137	137	137	137	129	129	129	129	135	135	135	135	131	131	131	131	131	131	131	131	131	131	131	131	130	130	130	130	130	130
145	145	140	140	140	140	137	137	137	137	132	132	132	132	130	130	130	130	128	128	128	128	131	131	131	131	136	136	136	136	135	135	135	135	130	130	130	130	133	133	133	133	133	133	133	133	124	124	124	124	126	126	126	126	121	121	121	121	121	121	121	121	120	120	120	120	126	126	126	126	123	123	123	123	122	122	122	122	123	123	123	123	126	126	126	126	125	125	125	125	124	124	124	124	124	124	124	124	127	127	127	127	128	128	128	128	133	133	133	133	130	130	130	130	131	131	131	131	130	130	130	130	130	130	130	130	130	130	130	130	128	128	128	128	128	128	128	128	131	131	131	131	135	135	135	135	129	129	129	129	140	140	140	140	140	140	140	140	140	140	140	140	140	140	140	140	140	140	140	140	137	137	137	137	137	137	137	137	136	136	136	136	132	132	132	132	131	131	131	131	130	130	130	130	130	130	130	130	128	128	128	128	128	128	128	128	130	130	130	130	131	131	131	131	132	132	132	132	136	136	136	136	137	137	137	137	140	140	140	140	129	129	129	129	135	135	135	135	136	136	136	136	136	136	136	136	135	135	135	135	132	132	132	132	131	131	131	131	130	130	130	130	130	130	130	130	128	128	128	128	127	127	127	127	127	127	127	127	130	130	130	130	135	135	135	135	137	137	137	137	134	134	134	134	137	137	137	137	140	140	140	140	129	129	129	129	135	135	135	135	137	137	137	137	135	135	135	135	131	131	131	131	130	130	130	130	129	129	129	129	140	140	140	140	135	135	135	135	132	132	132	132	137	137	137	137	140	140	140	140	140	140	140	140	140	140	140	140	137	137	137	137	137	137	137	137	137	137	137	137	129	129	129	129	132	132	132	132	131	131	131	131	131	131	131	131	131	131	131	131	130	130	130	130	130	130	130	130	130	130
145	145	140	140	140	140	137	137	137	137	132	132	132	132	130	130	130	130	128	128	128	128	131	131	131	131	136	136	136	136	135	135	135	135	130	130	130	130	133	133	133	133	133	133	133	133	124	124	124	124	126	126	126	126	121	121	121	121	121	121	121	121	120	120	120	120	126	126	126	126	123	123	123	123	122	122	122	122	123	123	123	123	126	126	126	126	125	125	125	125	124	124	124	124	124	124	124	124	127	127	127	127	128	128	128	128	133	133	133	133	130	130	130	130	131	131	131	131	130	130	130	130	130	130	130	130	130	130	130	130	128	128	128	128	128	128	128	128	131	131	131	131	135	135	135	135	129	129	129	129	140	140	140	140	140	140	140	140	140	140	140	140	140	140	140	140	140	140	140	140	137	137	137	137	137	137	137	137	136	136	136	136	132	132	132	132	131	131	131	131	130	130	130	130	130	130	130	130	128	128	128	128	128	128	128	128	130	130	130	130	131	131	131	131	132	132	132	132	136	136	136	136	137	137	137	137	140	140	140	140	129	129	129	129	135	135	135	135	136	136	136	136	136	136	136	136	135	135	135	135	132	132	132	132	131	131	131	131	130	130	130	130	130	130	130	130	128	128	128	128	127	127	127	127	127	127	127	127	130	130	130	130	135	135	135	135	137	137	137	137	134	134	134	134	137	137	137	137	140	140	140	140	129	129	129	129	135	135	135	135	137	137	137	137	135	135	135	135	131	131	131	131	130	130	130	130	129	129	129	129	140	140	140	140	135	135	135	135	132	132	132	132	137	137	137	137	140	140	140	140	140	140	140	140	140	140	140	140	137	137	137	137	137	137	137	137	137	137	137	137	129	129	129	129	132	132	132	132	131	131	131	131	131	131	131	131	131	131	131	131	130	130	130	130	130	130	130	130	130	130
145	145	140	140	140	140	137	137	137	137	132	132	132	132	130	130	130	130	128	128	128	128	131	131	131	131	136	136	136	136	135	135	135	135	130	130	130	130	133	133	133	133	133	133	133	133	124	124	124	124	126	126	126	126	121	121	121	121	121	121	121	121	120	120	120	120	126	126	126	126	123	123	123	123	122	122	122	122	123	123	123	123	126	126	126	126	125	125	125	125	124	124	124	124	124	124	124	124	127	127	127	127	128	128	128	128	133	133	133	133	130	130	130	130	131	131	131	131	130	130	130	130	130	130	130	130	130	130	130	130	128	128	128	128	128	128	128	128	131	131	131	131	135	135	135	135	129	129	129	129	140	140	140	140	140	140	140	140	140	140	140	140	140	140	140	140	140	140	140	140	137	137	137	137	137	137	137	137	136	136	136	136	132	132	132	132	131	131	131	131	130	130	130	130	130	130	130	130	128	128	128	128	128	128	128	128	130	130	130	130	131	131	131	131	132	132	132	132	136	136	136	136	137	137	137	137	140	140	140	140	129	129	129	129	135	135	135	135	136	136	136	136	136	136	136	136	135	135	135	135	132	132	132	132	131	131	131	131	130	130	130	130	130	130	130	130	128	128	128	128	127	127	127	127	127	127	127	127	130	130	130	130	135	135	135	135	137	137	137	137	134	134	134	134	137	137	137	137	140	140	140	140	129	129	129	129	135	135	135	135	137	137	137	137	135	135	135	135	131	131	131	131	130	130	130	130	129	129	129	129	140	140	140	140	135	135	135	135	132	132	132	132	137	137	137	137	140	140	140	140	140	140	140	140	140	140	140	140	137	137	137	137	137	137	137	137	137	137	137	137	129	129	129	129	132	132	132	132	131	131	131	131	131	131	131	131	131	131	131	131	130	130	130	130	130	130	130	130	130	130
145	145	140	140	140	140	137	137	137	137	132	132	132	132	130	130	130	130	128	128	128	128	131	131	131	131	136	136	136	136	135	135	135	135	130	130	130	130	133	133	133	133	133	133	133	133	124	124	124	124	126	126	126	126	121	121	121	121	121	121	121	121	120	120	120	120	126	126	126	126	123	123	123	123	122	122	122	122	123	123	123	123	126	126	126	126	125	125	125	125	124	124	124	124	124	124	124	124	127	127	127	127	128	128	128	128	133	133	133	133	130	130	130	130	131	131	131	131	130	130	130	130	130	130	130	130	130	130	130	130	128	128	128	128	128	128	128	128	131	131	131	131	135	135	135	135	129	129	129	129	140	140	140	140	140	140	140	140	140	140	140	140	140	140	140	140	140	140	140	140	137	137	137	137	137	137	137	137	136	136	136	136	132	132	132	132	131	131	131	131	130	130	130	130	130	130	130	130	128	128	128	128	128	128	128	128	130	130	130	130	131	131	131	131	132	132	132	132	136	136	136	136	137	137	137	137	140	140	140	140	129	129	129	129	135	135	135	135	136	136	136	136	136	136	136	136	135	135	135	135	132	132	132	132	131	131	131	131	130	130	130	130	130	130	130	130	128	128	128	128	127	127	127	127	127	127	127	127	130	130	130	130	135	135	135	135	137	137	137	137	134	134	134	134	137	137	137	137	140	140	140	140	129	129	129	129	135	135	135	135	137	137	137	137	135	135	135	135	131	131	131	131	130	130	130	130	129	129	129	129	140	140	140	140	135	135	135	135	132	132	132	132	137	137	137	137	140	140	140	140	140	140	140	140	140	140	140	140	137	137	137	137	137	137	137	137	137	137	137	137	129	129	129	129	132	132	132	132	131	131	131	131	131	131	131	131	131	131	131	131	130	130	130	130	130	130	130	130	130	130
145	145	141	141	141	141	145	145	145	145	135	135	135	135	131	131	131	131	128	128	128	128	130	130	130	130	132	132	132	132	130	130	130	130	127	127	127	127	124	124	124	124	124	124	124	124	121	121	121	121	126	126	126	126	123	123	123	123	123	123	123	123	122	122	122	122	120	120	120	120	122	122	122	122	120	120	120	120	126	126	126	126	124	124	124	124	124	124	124	124	125	125	125	125	127	127	127	127	127	127	127	127	128	128	128	128	130	130	130	130	130	130	130	130	130	130	130	130	130	130	130	130	130	130	130	130	133	133	133	133	128	128	128	128	128	128	128	128	131	131	131	131	135	135	135	135	129	129	129	129	140	140	140	140	140	140	140	140	140	140	140	140	137	137	137	137	140	140	140	140	129	129	129	129	136	136	136	136	135	135	135	135	132	132	132	132	131	131	131	131	131	131	131	131	130	130	130	130	128	128	128	128	128	128	128	128	130	130	130	130	131	131	131	131	135	135	135	135	129	129	129	129	137	137	137	137	140	140	140	140	137	137	137	137	136	136	136	136	135	135	135	135	132	132	132	132	131	131	131	131	131	131	131	131	130	130	130	130	130	130	130	130	128	128	128	128	127	127	127	127	127	127	127	127	127	127	127	127	131	131	131	131	136	136	136	136	140	140	140	140	140	140	140	140	136	136	136	136	136	136	136	136	132	132	132	132	131	131	131	131	136	136	136	136	131	131	131	131	130	130	130	130	132	132	132	132	137	137	137	137	136	136	136	136	131	131	131	131	135	135	135	135	137	137	137	137	137	137	137	137	137	137	137	137	129	129	129	129	129	129	129	129	129	129	129	129	136	136	136	136	131	131	131	131	131	131	131	131	130	130	130	130	130	130	130	130	130	130	130	130	133	133	133	133	130	130	130	130	131	131
145	145	141	141	141	141	145	145	145	145	135	135	135	135	131	131	131	131	128	128	128	128	130	130	130	130	132	132	132	132	130	130	130	130	127	127	127	127	124	124	124	124	124	124	124	124	121	121	121	121	126	126	126	126	123	123	123	123	123	123	123	123	122	122	122	122	120	120	120	120	122	122	122	122	120	120	120	120	126	126	126	126	124	124	124	124	124	124	124	124	125	125	125	125	127	127	127	127	127	127	127	127	128	128	128	128	130	130	130	130	130	130	130	130	130	130	130	130	130	130	130	130	130	130	130	130	133	133	133	133	128	128	128	128	128	128	128	128	131	131	131	131	135	135	135	135	129	129	129	129	140	140	140	140	140	140	140	140	140	140	140	140	137	137	137	137	140	140	140	140	129	129	129	129	136	136	136	136	135	135	135	135	132	132	132	132	131	131	131	131	131	131	131	131	130	130	130	130	128	128	128	128	128	128	128	128	130	130	130	130	131	131	131	131	135	135	135	135	129	129	129	129	137	137	137	137	140	140	140	140	137	137	137	137	136	136	136	136	135	135	135	135	132	132	132	132	131	131	131	131	131	131	131	131	130	130	130	130	130	130	130	130	128	128	128	128	127	127	127	127	127	127	127	127	127	127	127	127	131	131	131	131	136	136	136	136	140	140	140	140	140	140	140	140	136	136	136	136	136	136	136	136	132	132	132	132	131	131	131	131	136	136	136	136	131	131	131	131	130	130	130	130	132	132	132	132	137	137	137	137	136	136	136	136	131	131	131	131	135	135	135	135	137	137	137	137	137	137	137	137	137	137	137	137	129	129	129	129	129	129	129	129	129	129	129	129	136	136	136	136	131	131	131	131	131	131	131	131	130	130	130	130	130	130	130	130	130	130	130	130	133	133	133	133	130	130	130	130	131	131
